0,0,0,0,0,0,0,2736,2736,2736,2736,2816,2904,2904,2816,2904,2904,2904,2904,2984,2984,2984,2904,2904,2904,2904,2904,2904,2904,2904,2904,2904,2904,2904,2816,2816,2816,2816,2816,2904,2904,2904,2904,2904,2904,2984,2984,2984,2904,2904,2904,2904,2904,2904,2904,2904,2904,2904,2816,2816,2816,2336,2336,2416,0,0,0,2576,2656,2736,2736,2816,2816,2816,2904,2816,2816,2816,2736,2816,2816,2816,2816,2816,2816,2816,2816,2816,2816,2816,2816,2816,2816,2816,2816,2816,2816,2816,2816,2816,2736,2816,2736,2816,2816,2816,2816,2816,2816,2816,2816,2816,2816,2816,2816,2816,2816,2816,2816,2816,2816,2816,2816,2816,2816,2816,2816,2816,2816,2816,2816,2816,2816,2736,2736,2736,512,512,512,512,568,568,632,688,752,872,1000,1064,1128,1200,1264,1328,1400,1464,1600,1672,1816,1888,1960,2032,2112,2184,2184,2184,2184,2184,2184,2184,2184,2184,2112,2112,2112,2112,2112,2112,2112,2112,2112,2112,2112,2112,2112,2184,2112,2112,2112,2112,2112,2032,2032,2032,1960,1960,1960,1960,1960,1960,1960,1960,1960,1960,1888,1888,1888,1888,1888,1888,1888,1888,1888,1816,1816,1816,1816,1816,1744,1744,1672,1672,1672,1672,1672,1600,1600,1672,1600,1600,1600,1536,1536,1536,1464,1464,1464,1400,1400,1400,1400,1400,1400,1328,1328,1328,1328,1264,1264,1264,1264,1264,1264,1264,1264,1264,1264,1264,1264,1264,1328,1328,1328,1328,1400,1400,1400,1400,1400,1464,1464,1536,1464,1464,1536,1536,1536,1600,1600,1600,1600,1600,1600,1600,1672,1672,1672,1672,1672,1744,1744,1744,1744,1816,1816,1816,1816,1816,1888,1888,1888,1888,1888,1888,1888,1960,1960,1960,1960,2032,2032,2032,2032,2032,2032,2032,2032,2032,2032,2032,2112,2032,2112,2112,2112,2112,2112,2112,2112,2112,2112,2184,2184,2184,2184,2184,2184,2264,2264,2264,2264,2264,2336,2336,2336,2336,2336,2336,2416,2336,2336,2416,2416,2416,2336,2336,2336,2336,2336,2336,2336,2336,2336,2416,2416,2416,2336,2416,2416,2416,2416,2416,2416,2416,2416,2416,2496,2496,2496,2496,2496,2496,2416,2416,2416,2416,2416,2416,2416,2416,2496,2496,2416,2496,2416,2496,2416,2416,2416,2496,2496,2496,2496,2496,2496,2496,2496,2496,2496,2416,2496,2416,2496,2416,2416,2416,2416,2416,2416,2416,2416,2336,2336,2336,2264,2264,2336,2336,2336,2336,2336,2336,2416,2336,2336,2336,2336,2264,2264,2264,2264,2336,2336,2336,2336,2336,2416,2336,2416,2336,2336,2336,2336,2336,2336,2336,2336,2416,2336,2336,2336,2416,2416,2336,2336,2416,2416,2416,2416,2416,2416,2416,2416,2336,2336,2336,2336,2336,2336,2264,2184,2032,1960,1816,1816,1744,1672,1600,1536,1400,1328,1264,1200,1128,1064,1000,816,752,688,688,632,568,568,568,632,632,752,816,2904,2904,2904,2984,2904,2904,2984,2904,2904,2904,2904,2816,2904,2904,2904,2904,2984,2984,2984,2984,2984,2984,2984,2984,2984,2984,2984,2984,2904,2904,2984,2904,2984,2984,2904,2984,2984,2984,2984,2984,2984,2984,2984,3072,2984,2904,2904,2904,2904,2904,2904,2904,2904,2904,2904,2904,2984,2984,2984,2984,2904,2904,2904,2904,2904,2904,2816,2816,2816,2816,2816,2904,2904,2904,2904,2904,2816,2816,2816,2816,2816,2736,2816,2816,2816,2904,2904,2904,2904,2904,2904,2904,2904,2816,2816,2816,2816,2816,2736,2816,2736,2736,2816,2816,2816,2816,2816,2816,2816,2816,2736,2736,2816,2816,2816,2816,2816,2904
0,0,0,0,0,0,0,2736,2736,2736,2736,2816,2816,2904,2816,2904,2984,2984,2984,2984,2984,2984,2904,2904,2904,2904,2904,2904,2904,2904,2904,2816,2904,2816,2736,2736,2816,2736,2816,2816,2904,2816,2904,2904,2904,2984,2984,2984,2904,2904,2904,2904,2904,2904,2904,2904,2904,2816,2816,2656,2336,2336,2336,2416,2576,2496,2576,2656,2656,2736,2736,2816,2816,2904,2816,2816,2736,0,2656,2736,2736,2576,2576,2816,2816,2816,2816,2816,2816,2816,2816,2816,2816,2904,2816,2816,2816,2816,2816,2736,2736,2736,2816,2816,2816,2816,2816,2816,2904,2904,2904,2904,2816,2816,2816,2816,2816,2816,2816,2816,2816,2816,2816,2816,2816,2816,2816,2816,2816,2816,2816,2816,2736,2736,2736,512,512,512,512,512,512,568,632,632,752,872,1000,1064,1128,1200,1264,1328,1400,1464,1600,1672,1816,1960,2032,2032,2112,2112,2184,2184,2184,2184,2184,2184,2112,2112,2112,2112,2112,2112,2112,2112,2112,2112,2112,2184,2112,2112,2112,2184,2184,2112,2112,2112,2112,2032,2032,2032,1960,1960,1960,1960,1960,1960,1960,1960,1960,1960,1960,1888,1888,1888,1888,1888,1888,1888,1888,1816,1816,1816,1816,1744,1744,1672,1672,1672,1672,1672,1672,1672,1600,1672,1600,1600,1600,1536,1600,1536,1464,1464,1464,1464,1400,1400,1328,1400,1400,1328,1328,1328,1328,1264,1264,1264,1264,1264,1264,1264,1264,1264,1264,1264,1264,1264,1328,1328,1328,1328,1400,1400,1400,1400,1400,1464,1464,1464,1464,1464,1464,1464,1536,1536,1536,1600,1600,1600,1600,1600,1672,1672,1672,1672,1672,1744,1744,1744,1744,1816,1816,1816,1816,1816,1888,1888,1888,1888,1888,1888,1960,1960,1960,1960,1960,1960,2032,2032,2032,2032,2032,2032,2032,2032,2032,2032,2112,2032,2032,2112,2112,2112,2112,2112,2112,2112,2112,2112,2184,2184,2184,2184,2184,2264,2264,2264,2264,2336,2336,2336,2336,2336,2336,2336,2336,2336,2336,2416,2416,2416,2336,2336,2336,2336,2336,2264,2264,2336,2336,2336,2416,2416,2416,2416,2416,2416,2416,2416,2416,2416,2496,2496,2496,2496,2496,2496,2496,2496,2416,2416,2416,2416,2416,2416,2416,2416,2496,2496,2496,2496,2496,2496,2496,2496,2496,2496,2496,2496,2496,2496,2496,2496,2496,2416,2416,2416,2416,2416,2416,2416,2416,2416,2416,2416,2416,2416,2416,2336,2336,2336,2264,2264,2336,2336,2336,2336,2336,2336,2416,2336,2336,2336,2336,2336,2264,2336,2336,2336,2336,2336,2336,2336,2416,2416,2336,2336,2336,2336,2336,2336,2336,2336,2336,2336,2336,2336,2416,2416,2416,2416,2416,2416,2416,2416,2416,2416,2416,2416,2416,2336,2336,2336,2336,2336,2264,2184,2184,2112,1960,1888,1816,1744,1672,1600,1464,1400,1328,1264,1200,1128,1064,1000,816,752,632,688,632,568,568,568,632,632,752,816,2904,2904,2904,2904,2904,2904,2904,2904,2904,2904,2904,2816,2904,2904,2904,2904,2904,2984,2904,2984,2984,2984,2984,2984,2984,2984,2984,2904,2904,2904,2984,2984,2984,2984,2904,2984,2984,2984,2984,2984,2984,2984,2984,2984,2984,2904,2904,2984,2904,2904,2904,2904,2904,2984,2904,2904,2984,2984,2984,2984,2984,2904,2904,2904,2904,2816,2816,2816,2816,2816,2904,2904,2904,2904,2984,2904,2816,2816,2816,2736,2736,2736,2736,2816,2816,2904,2904,2904,2904,2904,2904,2904,2904,2816,2816,2816,2816,2736,2736,2736,2736,2736,2816,2816,2816,2904,2904,2816,2904,2816,2736,2816,2816,2816,2816,2816,2816,2904
0,0,0,0,0,0,0,2816,2736,2816,2736,2816,2904,2904,2904,2904,2984,2984,2984,2984,2984,2904,2904,2904,2904,2904,2904,2904,2904,2904,2904,2816,2816,2816,2736,2736,2816,2736,2816,2816,2816,2816,2904,2904,2904,2904,2904,2904,2904,2904,2904,2904,2904,2904,2904,2904,2904,2816,2816,2816,2816,2816,2576,2576,2576,2576,2576,2656,2736,2736,2736,2816,2816,0,0,0,0,0,0,0,2496,2496,2576,2816,2816,2816,2816,2816,2816,2816,2904,2904,2904,2984,2816,2816,2816,2816,2816,2736,2736,2736,2736,2816,2816,2816,2816,2816,2904,2904,2904,2904,2904,2904,2816,2816,2816,2816,2816,2816,2816,2816,2816,2816,2816,2816,2736,2816,2816,2816,2816,2816,2816,2736,2816,2816,512,448,512,512,568,568,632,632,752,872,1000,1064,1128,1200,1264,1328,1400,1464,1600,1744,1816,1960,2032,2032,2112,2112,2184,2184,2184,2184,2184,2184,2112,2112,2112,2112,2112,2112,2112,2112,2112,2112,2112,2112,2112,2112,2112,2112,2112,2112,2112,2112,2112,2032,2032,2032,1960,1960,1960,1960,1960,1960,1960,1960,1960,1960,1960,1960,1888,1888,1888,1888,1888,1888,1816,1816,1816,1816,1816,1744,1744,1672,1672,1672,1672,1672,1672,1672,1672,1672,1600,1600,1600,1600,1600,1536,1464,1464,1464,1400,1400,1400,1400,1328,1328,1328,1328,1328,1328,1264,1264,1264,1264,1264,1264,1264,1264,1264,1264,1264,1264,1264,1328,1328,1328,1400,1400,1400,1400,1400,1400,1400,1464,1464,1464,1464,1464,1464,1464,1536,1536,1536,1600,1600,1600,1600,1672,1672,1672,1672,1744,1744,1744,1744,1744,1816,1816,1816,1816,1816,1888,1816,1888,1888,1888,1888,1888,1888,1960,1960,1960,1960,2032,2032,2032,2032,2032,2032,2032,2032,2032,2032,2112,2032,2112,2032,2032,2112,2112,2112,2112,2112,2112,2112,2112,2184,2184,2184,2184,2184,2264,2264,2264,2264,2336,2336,2336,2336,2336,2336,2416,2416,2336,2416,2416,2416,2416,2336,2336,2336,2336,2336,2336,2336,2336,2336,2416,2416,2416,2416,2416,2416,2416,2416,2416,2416,2416,2496,2496,2496,2496,2496,2496,2496,2416,2416,2416,2416,2416,2416,2416,2416,2416,2416,2416,2496,2496,2496,2496,2496,2496,2496,2496,2496,2496,2496,2496,2496,2496,2416,2416,2416,2416,2416,2416,2416,2416,2416,2416,2416,2416,2416,2336,2336,2336,2336,2336,2336,2336,2336,2336,2336,2336,2336,2416,2336,2336,2336,2336,2336,2264,2264,2264,2336,2336,2336,2336,2336,2336,2416,2416,2336,2336,2336,2336,2336,2264,2336,2336,2336,2336,2336,2336,2416,2416,2416,2336,2416,2416,2416,2416,2416,2416,2416,2416,2336,2336,2336,2264,2264,2184,2184,2112,2032,1960,1816,1816,1744,1672,1600,1464,1464,1400,1264,1264,1128,1064,1000,816,752,688,632,632,632,568,632,632,688,752,816,872,2816,2904,2904,2904,2904,2904,2904,2904,2904,2904,2816,2904,2904,2904,2816,2904,2904,2904,2904,2984,2904,2904,2984,2984,2984,2984,2904,2904,2984,2984,2984,2984,2984,2904,2984,2984,2984,2984,2984,2984,2904,2984,2984,2984,2904,2904,2904,2904,2904,2904,2816,2904,2904,2904,2904,2984,2984,2984,2984,2984,2904,2904,2904,2904,2904,2816,2816,2816,2816,2904,2904,2904,2904,2984,2904,2816,2816,2816,2736,2736,2736,2736,2736,2816,2904,2904,2904,2816,2904,2904,2904,2904,2816,2816,2816,2816,2736,2736,2736,2736,2736,2816,2816,2816,2904,2904,2904,2904,2904,2816,2816,2816,2816,2816,2816,2816,2816
0,0,0,0,0,0,0,2904,2736,2816,2736,2816,2816,2904,2904,2904,2984,2984,2984,2984,2984,2984,2904,2904,2904,2904,2904,2816,2816,2904,2904,2816,2816,2816,2736,2816,2816,2736,2816,2816,2904,2816,2904,2904,2904,2904,2904,2904,2816,2816,2904,2904,2816,2816,2816,2904,2904,2816,2816,2816,2816,2816,2904,2656,2656,2736,2736,2736,2816,2816,2816,2816,2904,0,0,0,0,0,0,0,2496,2496,2576,2736,2816,2736,2816,2816,2816,2816,2904,2904,2904,2904,2816,2816,2816,2816,2736,2736,2656,0,0,0,0,2816,2816,2816,2904,2904,2904,2904,2816,2816,2816,2816,2816,2816,2816,2816,2816,2816,2816,2816,2736,2816,2736,2816,2816,2736,2816,2816,2816,2736,2816,2816,512,512,512,568,568,568,632,688,816,872,1000,1000,1128,1200,1264,1328,1400,1464,1600,1672,1816,1888,1960,2032,2112,2112,2184,2184,2184,2184,2184,2112,2112,2112,2112,2032,2112,2112,2112,2112,2112,2112,2112,2184,2184,2112,2112,2184,2112,2112,2032,2032,2112,2032,2032,1960,1960,1960,1960,1960,1960,1960,1960,1960,1960,1960,1888,1960,1888,1888,1960,1888,1888,1888,1888,1816,1816,1816,1816,1744,1744,1744,1744,1672,1672,1672,1672,1672,1672,1672,1600,1600,1600,1600,1536,1536,1464,1400,1400,1400,1400,1400,1328,1328,1328,1328,1328,1328,1328,1264,1264,1264,1264,1264,1264,1264,1264,1264,1264,1264,1264,1264,1264,1328,1328,1328,1400,1400,1400,1400,1400,1400,1464,1400,1400,1464,1464,1464,1464,1536,1464,1536,1600,1600,1600,1600,1672,1672,1672,1672,1672,1744,1744,1744,1744,1816,1816,1816,1816,1816,1888,1816,1816,1888,1888,1888,1888,1888,1888,1960,1960,1960,1960,1960,1960,2032,2032,2032,2032,2032,2032,2032,2112,2032,2032,2032,2032,2112,2112,2112,2112,2112,2112,2112,2112,2184,2184,2184,2184,2184,2264,2264,2264,2264,2336,2336,2264,2336,2336,2336,2416,2416,2416,2416,2416,2416,2416,2336,2336,2336,2336,2336,2336,2336,2336,2336,2416,2416,2416,2416,2416,2416,2416,2416,2416,2416,2416,2496,2496,2416,2496,2496,2416,2416,2416,2416,2416,2416,2416,2416,2416,2416,2416,2416,2496,2496,2496,2496,2496,2496,2496,2496,2496,2496,2496,2416,2416,2416,2416,2416,2416,2416,2416,2416,2416,2416,2416,2416,2416,2416,2416,2336,2336,2336,2336,2336,2336,2336,2336,2336,2336,2336,2336,2336,2336,2336,2336,2336,2336,2264,2264,2264,2264,2336,2336,2336,2336,2336,2336,2336,2336,2336,2264,2336,2264,2264,2264,2336,2336,2336,2336,2336,2416,2416,2416,2416,2416,2336,2336,2416,2336,2336,2416,2336,2336,2336,2336,2336,2336,2264,2264,2184,2112,2032,1960,1816,1744,1744,1672,1600,1464,1464,1400,1264,1200,1128,1064,936,816,752,632,632,632,632,568,568,632,632,752,872,936,2816,2904,2904,2904,2904,2904,2904,2904,2904,2904,2816,2904,2816,2816,2816,2816,2904,2904,2904,2904,2904,2904,2904,2984,2984,2984,2904,2904,2984,2984,2984,2984,2984,2904,2984,2984,2984,2984,2984,2984,2984,2984,2984,2984,2904,2904,2904,2904,2904,2904,2816,2816,2904,2904,2904,2984,2984,2984,2984,2984,2904,2904,2904,2904,2816,2816,2816,2816,2816,2904,2904,2904,2904,2984,2904,2904,2816,2816,2816,2816,2736,2816,2816,2816,2904,2904,2904,2816,2904,2816,2904,2816,2816,2816,2816,2816,2736,2736,2736,2736,2816,2816,2816,2816,2904,2904,2904,2904,2816,2816,2816,2816,2816,2816,2816,2816,2816
0,0,0,0,0,0,0,2904,2736,2816,2736,2736,2816,2816,2816,2904,2984,2984,2984,2984,2984,2984,2984,2904,2904,2904,2904,2816,2816,2816,2816,2816,2816,2816,2816,2816,2904,2816,2816,2904,2904,2904,2904,2904,2904,2904,2904,2656,2656,2816,2904,2904,2816,2816,2816,2816,2904,2816,2816,2656,2816,2816,2904,2736,2736,2736,2736,2816,2816,2816,2816,2816,2904,0,0,0,0,0,0,0,0,0,2576,0,0,2736,2816,2816,2816,2816,2816,2904,2816,2904,2904,2816,2816,2816,2816,2816,0,0,0,0,0,0,2904,2816,2904,2904,2904,2816,2816,2816,2816,2816,2816,2816,2816,2816,2816,2816,2736,2736,2736,2736,2736,2736,2736,2736,2816,2816,2736,2736,2736,2816,448,512,512,568,568,568,632,688,752,872,936,1000,1064,1200,1264,1328,1400,1464,1600,1672,1816,1888,1960,2032,2112,2112,2184,2184,2184,2184,2184,2184,2112,2112,2112,2112,2112,2112,2112,2112,2112,2112,2112,2184,2184,2112,2112,2184,2112,2112,2112,2112,2112,2032,2032,2032,1960,1960,2032,1960,1960,1960,1960,1960,1960,1960,1888,1888,1888,1888,1888,1888,1888,1888,1816,1816,1816,1816,1816,1744,1744,1744,1744,1672,1672,1672,1672,1672,1672,1672,1600,1600,1600,1600,1536,1536,1464,1464,1400,1400,1400,1400,1328,1328,1328,1328,1328,1264,1328,1264,1264,1264,1264,1264,1264,1264,1264,1264,1264,1264,1264,1264,1264,1328,1328,1328,1328,1400,1400,1400,1400,1400,1400,1400,1400,1400,1400,1464,1464,1536,1464,1536,1600,1600,1600,1600,1672,1672,1672,1672,1672,1744,1672,1744,1744,1816,1744,1816,1816,1816,1816,1816,1816,1816,1888,1888,1888,1888,1888,1960,1960,1960,1960,1960,1960,2032,2032,2032,2032,2032,2032,2032,2112,2032,2032,2032,2032,2112,2112,2112,2112,2112,2112,2112,2112,2184,2184,2184,2184,2264,2264,2264,2264,2264,2264,2264,2264,2264,2336,2336,2336,2336,2336,2416,2416,2336,2336,2336,2264,2264,2264,2264,2264,2336,2336,2336,2336,2336,2416,2416,2416,2416,2416,2416,2416,2416,2416,2496,2416,2416,2496,2496,2416,2416,2416,2416,2416,2416,2416,2416,2416,2416,2416,2416,2416,2496,2496,2496,2496,2416,2416,2496,2416,2416,2416,2416,2416,2416,2416,2416,2416,2416,2416,2416,2416,2416,2416,2416,2416,2416,2416,2336,2336,2336,2336,2336,2336,2336,2336,2336,2336,2336,2336,2336,2336,2336,2264,2336,2336,2264,2264,2264,2264,2336,2336,2336,2336,2336,2336,2336,2336,2336,2264,2336,2264,2264,2264,2264,2336,2336,2336,2336,2336,2336,2336,2336,2336,2336,2336,2336,2336,2336,2416,2416,2416,2416,2416,2336,2336,2336,2264,2184,2112,2112,2032,1888,1816,1744,1672,1600,1536,1464,1400,1264,1200,1064,1000,936,816,752,632,632,632,568,568,568,632,688,752,816,2904,2816,2904,2904,2904,2904,2904,2904,2904,2904,2904,2816,2904,2816,2816,2816,2816,2816,2816,2904,2904,2904,2904,2904,2984,2984,2904,2904,2904,2904,2904,2904,2904,2904,2904,2904,2984,2984,2984,2984,2984,2904,2984,2984,2984,2904,2904,2904,2904,2904,2904,2816,2816,2904,2904,2904,2984,2984,2984,2984,2984,2984,2904,2904,2816,2816,2816,2816,2816,2816,2904,2904,2904,2904,2904,2904,2816,2816,2816,2816,2736,2736,2736,2816,2816,2904,2904,2904,2816,2816,2816,2816,2816,2816,2736,2736,2736,2736,2736,2736,2736,2736,2816,2816,2816,2816,2904,2816,2904,2816,2816,2816,2816,2736,2816,2816,2816,2816
0,0,0,0,0,0,0,2816,2736,2816,2736,2816,2816,2816,2816,2904,2984,2984,2984,2984,2984,2904,2904,2904,2904,2904,2904,2816,2816,2816,2816,2816,2816,2816,2816,2816,2904,2904,2904,2904,2904,2904,2904,2904,2904,2904,2904,2904,2816,2816,2904,2904,2816,2816,2816,2904,2904,2816,2816,2816,2816,2904,2904,2904,2816,2816,2816,2816,2904,2816,2816,2816,2904,0,0,0,0,0,0,0,0,0,0,0,0,0,2816,2816,2816,2904,2904,2904,2904,2904,2984,2904,2816,2816,0,0,0,0,0,0,0,0,0,2904,2904,2904,2816,2816,2816,2816,2816,2816,2816,2816,2816,2736,2816,2736,2736,2736,2736,2736,2736,2736,2736,2736,2816,2736,2736,2736,2736,2816,448,512,512,568,568,632,632,688,752,872,1000,1000,1064,1200,1264,1328,1400,1464,1600,1744,1816,1888,1960,2032,2112,2112,2184,2184,2184,2184,2184,2184,2112,2112,2112,2112,2112,2112,2112,2112,2112,2112,2112,2184,2184,2112,2184,2112,2112,2112,2112,2112,2112,2112,2032,2032,2032,2032,2032,2032,2032,1960,1960,1960,1960,1960,1888,1888,1888,1888,1888,1888,1888,1888,1816,1816,1816,1816,1816,1816,1744,1744,1744,1672,1672,1672,1672,1672,1672,1672,1600,1600,1600,1600,1536,1536,1536,1464,1464,1400,1400,1400,1328,1328,1328,1328,1328,1264,1264,1264,1200,1200,1200,1264,1200,1264,1264,1264,1264,1264,1264,1264,1264,1328,1328,1328,1328,1328,1400,1400,1400,1400,1400,1400,1400,1400,1400,1400,1400,1464,1464,1464,1536,1536,1600,1600,1672,1672,1672,1672,1672,1672,1672,1744,1744,1744,1744,1816,1816,1816,1816,1816,1816,1816,1816,1816,1888,1888,1888,1960,1960,1960,1960,1960,1960,1960,2032,2032,2032,2032,2032,2032,2032,1960,2032,2032,2032,2032,2112,2112,2112,2112,2112,2112,2112,2112,2184,2184,2184,2184,2264,2264,2264,2264,2264,2264,2264,2336,2336,2336,2416,2416,2336,2416,2416,2336,2336,2336,2264,2264,2264,2264,2264,2336,2336,2336,2336,2336,2416,2416,2416,2416,2416,2416,2416,2416,2416,2496,2496,2416,2496,2496,2416,2416,2416,2416,2416,2416,2416,2416,2416,2416,2416,2416,2416,2416,2416,2416,2416,2416,2416,2416,2416,2416,2416,2416,2416,2416,2416,2336,2336,2416,2416,2416,2416,2416,2416,2416,2416,2416,2336,2336,2336,2336,2336,2336,2336,2336,2336,2336,2264,2336,2336,2336,2336,2336,2264,2336,2336,2264,2264,2264,2264,2264,2336,2264,2336,2336,2336,2336,2336,2336,2336,2336,2264,2264,2264,2336,2336,2336,2336,2336,2336,2336,2336,2336,2336,2336,2336,2336,2336,2336,2416,2416,2416,2416,2416,2336,2336,2336,2264,2184,2184,2112,2032,1888,1816,1744,1672,1600,1536,1464,1464,1264,1128,1064,1000,936,816,752,688,632,632,632,568,568,632,688,752,2816,2816,2816,2816,2816,2816,2904,2904,2816,2904,2816,2816,2816,2816,2816,2816,2816,2816,2816,2816,2904,2904,2904,2904,2904,2984,2904,2904,2904,2904,2904,2904,2904,2904,2904,2904,2904,2984,2904,2904,2904,2904,2904,2904,2984,2984,2904,2904,2904,2904,2904,2816,2816,2816,2904,2904,2904,2984,2984,2984,2984,2984,2904,2904,2904,2904,2816,2816,2816,2816,2816,2904,2904,2904,2904,2904,2816,2816,2736,2736,2736,2736,2736,2816,2816,2904,2904,2904,2904,2816,2904,2816,2816,2816,2816,2736,2736,2736,2736,2736,2736,2736,2736,2736,2736,2736,2736,2816,2816,2816,2816,2816,2816,2816,2816,2816,2816,2816,2816
0,0,0,0,0,0,0,2816,2736,2816,2816,2816,2816,2816,2816,2904,2904,2904,2904,2904,2904,2904,2904,2904,2904,2904,2816,2816,2816,2816,2816,2816,2816,2816,2816,2816,2904,2904,2904,2904,2904,2904,2904,2904,2904,2904,2904,2904,2904,2904,2904,2904,2904,2904,2904,2904,2904,2904,2904,2816,2904,2904,2904,2904,2904,2816,2816,2816,2816,2816,2816,2816,2904,2904,2904,0,0,0,0,0,0,0,0,0,0,0,2816,2816,2816,2816,2904,2904,2904,2904,2984,2816,2816,2816,2736,2736,0,0,0,0,0,0,0,2904,2904,2816,2816,2816,2816,2816,2816,2816,2816,2816,2816,2736,2816,2736,2736,2736,2736,2736,2736,2736,2736,2736,2816,2736,2736,2736,2736,448,448,512,512,568,568,632,632,688,816,872,1000,1000,1128,1200,1264,1328,1400,1464,1600,1672,1816,1888,1960,2032,2112,2112,2184,2184,2184,2184,2184,2184,2112,2112,2184,2112,2112,2112,2112,2112,2112,2112,2112,2184,2184,2112,2112,2112,2112,2112,2032,2032,2032,2032,2032,2032,2032,2032,2032,2032,2032,1960,1960,1960,1960,1960,1888,1888,1888,1888,1960,1888,1888,1888,1888,1816,1816,1816,1816,1816,1816,1744,1744,1744,1672,1672,1672,1672,1672,1672,1600,1600,1600,1600,1536,1536,1536,1464,1464,1400,1400,1400,1328,1328,1328,1328,1328,1264,1264,1264,1200,1264,1200,1264,1200,1264,1264,1264,1264,1264,1264,1264,1264,1264,1328,1328,1328,1328,1328,1400,1400,1400,1400,1400,1400,1400,1400,1400,1464,1464,1464,1464,1536,1536,1600,1600,1600,1600,1672,1672,1672,1672,1672,1744,1744,1744,1744,1816,1744,1816,1816,1816,1744,1816,1816,1816,1888,1888,1888,1960,1960,1960,1960,1960,1960,1960,1960,1960,1960,1960,1960,2032,2032,1960,1960,2032,2032,2032,2112,2112,2112,2112,2112,2112,2112,2184,2184,2184,2184,2264,2264,2264,2264,2264,2264,2264,2264,2336,2336,2336,2336,2336,2336,2336,2416,2336,2336,2336,2264,2264,2264,2264,2264,2336,2336,2336,2336,2336,2416,2416,2416,2416,2416,2416,2416,2416,2416,2416,2416,2416,2416,2416,2416,2416,2416,2416,2416,2416,2416,2416,2416,2416,2416,2416,2416,2416,2416,2416,2416,2416,2416,2416,2416,2336,2416,2336,2336,2336,2336,2336,2336,2336,2336,2336,2336,2336,2416,2416,2416,2416,2336,2416,2416,2336,2336,2336,2336,2336,2336,2336,2264,2336,2336,2336,2336,2336,2264,2336,2336,2264,2264,2264,2264,2264,2336,2336,2336,2336,2336,2336,2336,2264,2264,2264,2264,2264,2264,2264,2264,2264,2264,2264,2336,2336,2264,2336,2336,2336,2336,2336,2336,2336,2416,2416,2416,2416,2416,2416,2336,2336,2264,2264,2184,2112,2112,1960,1816,1744,1672,1600,1536,1464,1400,1264,1128,1064,1000,936,816,752,688,632,632,632,568,568,632,632,688,2816,2816,2816,2816,2816,2816,2816,2816,2816,2816,2816,2816,2816,2816,2816,2816,2816,2816,2816,2816,2816,2816,2816,2816,2904,2904,2904,2904,2904,2904,2904,2904,2904,2904,2984,2904,2904,2984,2904,2904,2904,2904,2904,2904,2984,2984,2984,2984,2984,2904,2904,2904,2904,2904,2904,2904,2904,2984,2984,2984,2984,2984,2984,2904,2904,2904,2816,2816,2816,2816,2816,2816,2816,2904,2816,2904,2816,2816,2736,2736,2736,2736,2736,2736,2816,2816,2904,2904,2904,2816,2816,2816,2816,2816,2736,2736,2736,2736,2736,2736,2736,2736,2736,2736,2736,2816,2816,2816,2816,2816,2816,2816,2816,2816,2816,2816,2816,2816,2816
0,0,0,0,0,0,0,2736,2736,2816,2816,2816,2904,2904,2904,2904,2984,2984,2984,2984,2904,2904,2904,2904,2904,2904,2816,2816,2816,2904,2816,2816,2816,2816,2816,2816,2816,2816,2904,2904,2904,2904,2904,2904,2904,2904,2904,2904,2904,2904,2904,2904,2904,2904,2904,2904,2904,2904,2904,2816,2816,2904,2904,2904,2904,2816,2816,2904,2904,2816,2816,2816,2904,2904,2816,0,0,0,0,0,0,0,0,0,0,0,2736,2816,2816,2816,2904,2904,2904,2904,2904,2816,2816,2816,2736,2736,2736,0,0,0,0,0,0,2816,2816,2816,2816,2816,2816,2816,2816,2816,2816,2816,2816,2736,2736,2736,2736,2736,2736,2736,2736,2736,2736,2736,2816,2816,2736,2736,2736,448,448,512,512,568,568,632,632,688,752,872,1000,1000,1064,1200,1264,1328,1400,1464,1600,1744,1816,1888,1960,2032,2112,2112,2112,2184,2184,2184,2184,2112,2184,2112,2112,2112,2032,2112,2112,2112,2112,2184,2184,2184,2184,2112,2112,2112,2032,2032,2032,2032,2032,2032,1960,1960,1960,1960,2032,2032,1960,1960,1960,1960,1960,1960,1888,1888,1960,1960,1960,1888,1888,1888,1888,1816,1816,1816,1816,1816,1744,1744,1744,1744,1672,1672,1672,1672,1672,1672,1600,1600,1600,1600,1536,1536,1536,1464,1464,1400,1328,1328,1328,1328,1328,1328,1328,1264,1264,1264,1200,1200,1200,1200,1200,1200,1200,1200,1264,1264,1264,1264,1264,1264,1328,1328,1328,1328,1328,1328,1400,1400,1400,1400,1400,1400,1400,1400,1464,1464,1464,1536,1536,1536,1600,1600,1600,1600,1672,1672,1672,1672,1672,1672,1744,1744,1744,1744,1744,1744,1816,1816,1744,1744,1816,1816,1888,1888,1888,1888,1960,1960,1960,1960,1960,1960,1960,1960,1960,1960,1960,2032,2032,1960,1960,2032,2032,2032,2112,2112,2112,2112,2112,2112,2112,2184,2184,2184,2184,2264,2264,2264,2264,2264,2264,2336,2264,2336,2336,2336,2336,2336,2336,2336,2416,2416,2336,2336,2336,2336,2336,2264,2264,2336,2264,2336,2336,2336,2336,2416,2416,2416,2416,2416,2416,2416,2416,2416,2416,2416,2416,2416,2416,2416,2416,2416,2416,2416,2416,2416,2416,2416,2416,2416,2416,2416,2416,2416,2336,2416,2336,2336,2336,2336,2416,2336,2336,2336,2336,2336,2336,2336,2336,2336,2336,2336,2336,2416,2416,2416,2416,2416,2416,2336,2336,2336,2336,2336,2336,2336,2336,2336,2336,2336,2336,2264,2264,2264,2264,2264,2264,2264,2264,2336,2336,2336,2336,2336,2336,2264,2264,2264,2264,2264,2264,2184,2264,2264,2264,2264,2264,2264,2336,2264,2264,2264,2336,2264,2264,2336,2264,2336,2416,2416,2416,2416,2416,2336,2336,2264,2264,2264,2184,2112,2112,2032,1888,1816,1672,1600,1536,1464,1400,1264,1128,1064,1000,936,872,816,688,632,632,632,568,568,568,632,2816,2816,2816,2816,2816,2816,2816,2816,2904,2816,2816,2816,2816,2816,2816,2816,2816,2816,2816,2816,2816,2816,2816,2816,2816,2904,2904,2904,2816,2816,2816,2904,2904,2904,2904,2904,2904,2904,2984,2904,2904,2904,2904,2904,2904,2904,2904,2904,2904,2904,2904,2904,2904,2904,2904,2904,2904,2904,2984,2984,2984,2984,2984,2984,2904,2904,2904,2904,2904,2816,2816,2816,2904,2904,2904,2816,2904,2736,2736,2736,2736,2736,2736,2736,2736,2816,2904,2904,2904,2904,2904,2904,2816,2816,2816,2736,2736,2736,2736,2736,2736,2736,2736,2736,2736,2816,2816,2816,2816,2816,2816,2816,2816,2816,2816,2736,2736,2736,2736,2736
0,0,0,0,0,0,0,2736,2736,2736,2736,2816,2816,2816,2904,2904,2904,2904,2904,2904,2904,2904,2904,2904,2904,2904,2904,2904,2904,2904,2904,2904,2904,2816,2816,2816,2904,2816,2904,2904,2904,2904,2904,2904,2904,2904,2904,2904,2904,2904,2904,2904,2904,2904,2904,2904,2904,2904,2904,2904,2904,2904,2904,2904,2904,2816,2816,2904,2904,2816,2816,2816,2904,2904,2904,0,0,0,0,0,0,0,0,0,0,0,2736,2736,2736,2816,2816,2816,2816,2904,2904,2816,2816,2816,2816,2816,2816,2816,0,0,0,0,0,0,2816,2816,2816,2816,2816,2816,2816,2816,2816,2816,2816,2736,2736,2736,2736,2736,2736,2816,2816,2736,2816,2816,2816,2816,2816,2736,2736,448,448,512,512,568,568,632,632,688,752,872,1000,1000,1064,1200,1264,1328,1400,1464,1600,1672,1816,1888,1960,2032,2032,2112,2112,2184,2184,2184,2184,2112,2112,2112,2112,2112,2112,2112,2112,2112,2184,2184,2184,2184,2184,2112,2112,2112,2112,2112,2032,2032,2032,2032,1960,2032,2032,1960,2032,2032,1960,1960,1960,1960,1960,1960,1960,1960,1960,1960,1888,1888,1888,1888,1888,1888,1888,1816,1816,1816,1744,1744,1744,1744,1672,1672,1672,1672,1672,1600,1600,1600,1600,1600,1536,1536,1536,1464,1464,1400,1400,1400,1328,1328,1328,1328,1328,1264,1264,1264,1200,1200,1200,1200,1200,1200,1200,1200,1264,1264,1264,1264,1264,1328,1328,1328,1328,1328,1328,1328,1328,1400,1400,1400,1400,1400,1400,1400,1464,1464,1464,1536,1536,1536,1600,1600,1600,1600,1672,1672,1672,1672,1672,1672,1744,1744,1744,1744,1744,1744,1744,1744,1744,1744,1816,1816,1888,1888,1888,1888,1960,1960,1960,1960,1960,1960,1960,1960,1960,2032,2032,2032,2032,1960,2032,2032,2032,2112,2112,2112,2112,2112,2112,2112,2184,2184,2184,2184,2264,2264,2264,2264,2264,2336,2264,2336,2264,2336,2336,2336,2336,2336,2336,2416,2416,2416,2416,2416,2336,2336,2336,2264,2264,2336,2336,2336,2336,2336,2336,2336,2336,2336,2416,2416,2416,2416,2416,2416,2416,2416,2416,2416,2416,2416,2416,2336,2336,2336,2336,2416,2416,2416,2416,2416,2416,2416,2336,2336,2336,2336,2336,2336,2336,2336,2336,2336,2336,2336,2336,2336,2336,2336,2336,2336,2336,2336,2336,2336,2336,2336,2336,2416,2416,2336,2336,2416,2416,2416,2416,2336,2336,2336,2336,2336,2336,2264,2264,2264,2264,2264,2184,2264,2264,2264,2336,2336,2336,2336,2336,2264,2264,2264,2264,2264,2264,2264,2264,2264,2264,2264,2264,2264,2264,2264,2264,2264,2264,2264,2264,2264,2264,2336,2416,2336,2336,2416,2416,2336,2336,2264,2264,2184,2184,2112,2112,2032,1888,1816,1672,1600,1536,1464,1328,1264,1128,1064,1000,936,872,752,688,632,632,632,568,568,568,632,2816,2816,2816,2816,2816,2816,2816,2816,2904,2816,2816,2816,2816,2816,2816,2816,2816,2816,2816,2816,2904,2816,2816,2816,2816,2904,2904,2904,2816,2904,2904,2904,2904,2904,2904,2904,2904,2904,2984,2904,2904,2904,2904,2904,2904,2904,2904,2904,2904,2904,2904,2984,2904,2904,2904,2904,2904,2904,2984,2984,2984,2984,2984,2984,2904,2904,2904,2904,2904,2816,2816,2816,2904,2904,2904,2816,2816,2736,2736,2736,2736,2736,2736,2736,2736,2816,2816,2904,2904,2904,2904,2904,2816,2816,2816,2816,2736,2736,2736,2816,2816,2816,2736,2736,2736,2736,2816,2736,2816,2736,2816,2736,2736,2736,2736,2736,2736,2736,2736,2736
0,0,0,0,0,0,0,2736,2736,2736,2816,2816,2816,2816,2904,2904,2904,2904,2904,2904,2904,2904,2904,2904,2904,2904,2904,2904,2904,2904,2904,2904,2904,2904,2816,2904,2904,2904,2904,2904,2904,2904,2904,2904,2904,2904,2904,2904,2904,2904,2904,2904,2904,2904,2904,2904,2904,2904,2904,2904,2904,2904,2904,2904,2904,2904,2904,2904,2904,2904,2816,2816,2904,2904,2816,2816,0,0,0,0,0,0,0,0,0,0,2736,2736,2736,2816,2816,2816,2816,2816,2816,2816,2816,2816,2816,2816,2816,2816,2816,0,0,0,0,0,0,2736,2736,2736,2736,2736,2816,2816,2816,2816,2816,2736,2816,2816,2736,2816,2816,2816,2736,2736,2816,2816,2816,2816,2816,2736,2736,448,512,568,568,568,568,632,632,688,752,872,936,1000,1064,1128,1264,1328,1400,1464,1600,1744,1816,1888,1960,2032,2032,2112,2112,2184,2184,2184,2184,2184,2184,2112,2112,2112,2112,2112,2112,2112,2184,2184,2184,2184,2184,2184,2112,2112,2112,2112,2032,2032,2032,2032,2032,2032,2032,2032,2032,2032,2032,2032,2032,1960,1960,1960,1960,1960,1960,1960,1888,1888,1888,1888,1888,1888,1888,1816,1816,1816,1816,1744,1816,1744,1672,1672,1672,1672,1672,1600,1600,1600,1600,1600,1536,1536,1536,1464,1464,1400,1400,1400,1400,1328,1328,1328,1328,1264,1264,1264,1264,1200,1200,1200,1200,1200,1200,1200,1200,1200,1264,1264,1264,1328,1328,1328,1328,1328,1328,1328,1328,1400,1400,1400,1400,1400,1400,1400,1464,1464,1464,1536,1536,1536,1600,1600,1600,1600,1672,1672,1672,1672,1672,1672,1672,1672,1672,1672,1672,1744,1744,1744,1744,1744,1744,1816,1816,1816,1888,1888,1960,1960,1960,1960,1960,1960,1960,1960,1960,1960,1960,2032,2032,1960,2032,2032,2032,2032,2112,2112,2112,2112,2112,2112,2112,2184,2184,2184,2264,2264,2264,2264,2264,2264,2264,2264,2264,2264,2336,2336,2336,2336,2336,2336,2416,2416,2336,2336,2336,2336,2336,2336,2336,2336,2336,2336,2336,2336,2336,2336,2336,2336,2336,2416,2416,2416,2416,2416,2416,2416,2416,2416,2416,2416,2336,2336,2336,2336,2336,2336,2336,2336,2416,2416,2336,2336,2336,2336,2336,2336,2264,2336,2336,2336,2336,2336,2336,2336,2336,2336,2336,2336,2264,2264,2264,2336,2336,2336,2336,2336,2336,2336,2336,2336,2336,2336,2336,2336,2416,2336,2336,2336,2336,2336,2336,2264,2264,2264,2264,2184,2184,2264,2264,2264,2336,2336,2336,2336,2264,2264,2264,2264,2264,2264,2184,2264,2264,2264,2264,2264,2264,2264,2264,2264,2184,2264,2264,2264,2264,2264,2264,2264,2336,2336,2336,2336,2336,2336,2336,2336,2264,2184,2184,2112,2032,1960,1888,1816,1672,1600,1536,1400,1328,1200,1128,1064,936,872,816,752,688,632,632,632,568,568,632,632,2816,2816,2816,2816,2904,2816,2904,2904,2904,2904,2816,2816,2816,2816,2816,2816,2816,2816,2816,2816,2816,2816,2816,2816,2816,2816,2904,2816,2816,2816,2816,2904,2904,2904,2904,2904,2904,2904,2904,2904,2904,2904,2904,2904,2984,2984,2984,2984,2984,2904,2904,2984,2904,2904,2816,2904,2904,2904,2904,2904,2984,2984,2984,2984,2904,2904,2984,2904,2904,2816,2816,2816,2904,2816,2816,2816,2816,2736,2736,2736,2736,2736,2736,2736,2736,2816,2816,2816,2816,2904,2816,2816,2816,2816,2816,2816,2736,2736,2736,2816,2816,2816,2736,2736,2736,2816,2816,2736,2816,2736,2736,2736,2736,2736,2736,2736,2736,2736,2736,2736
0,0,0,0,0,0,0,2656,2736,2736,2736,2816,2816,2816,2816,2904,2904,2904,2904,2904,2904,2904,2904,2904,2904,2904,2904,2904,2904,2904,2904,2904,2904,2816,2816,2904,2904,2904,2904,2904,2904,2904,2904,2904,2904,2904,2904,2904,2904,2904,2904,2904,2904,2904,2904,2904,2904,2904,2904,2904,2904,2904,2904,2904,2904,2816,2816,2904,2904,2816,2816,2816,2816,2816,2816,2816,2816,2816,0,0,0,0,0,0,0,0,2656,2656,2736,2816,2816,2816,2816,2816,2816,2816,2816,2816,2816,2816,2816,2816,2736,0,0,0,0,0,2656,2656,2736,2736,2736,2736,2736,2736,2736,2816,2736,2736,2736,2816,2816,2816,2816,2816,2816,2736,2816,2816,2816,2816,2816,2736,392,448,512,568,568,568,568,632,632,688,752,816,936,936,1064,1128,1264,1328,1400,1464,1600,1744,1816,1888,1960,1960,2032,2032,2112,2184,2184,2184,2184,2184,2184,2112,2112,2112,2112,2112,2112,2112,2112,2184,2184,2184,2184,2112,2112,2112,2112,2112,2032,2032,2032,2032,2032,1960,2032,2032,2032,2032,1960,2032,2032,1960,1960,1960,1960,1960,1888,1888,1888,1888,1888,1888,1888,1888,1888,1816,1816,1816,1816,1816,1816,1744,1672,1672,1672,1672,1600,1600,1600,1600,1600,1536,1536,1536,1536,1464,1464,1400,1400,1400,1400,1328,1328,1328,1328,1328,1264,1264,1200,1200,1200,1200,1200,1200,1200,1200,1200,1200,1264,1264,1328,1328,1328,1328,1328,1328,1328,1328,1328,1400,1400,1400,1400,1400,1400,1400,1464,1464,1464,1536,1536,1536,1600,1600,1600,1600,1600,1600,1672,1672,1672,1672,1672,1672,1672,1672,1672,1672,1744,1744,1744,1744,1744,1816,1816,1888,1816,1888,1888,1960,1960,1960,1960,1960,1960,1960,1960,1960,1960,2032,2032,1960,1960,2032,2032,2032,2032,2032,2112,2112,2112,2112,2112,2184,2184,2184,2264,2264,2264,2264,2264,2264,2264,2264,2264,2264,2264,2264,2336,2336,2336,2336,2416,2416,2416,2336,2336,2336,2336,2336,2336,2336,2336,2336,2336,2336,2336,2336,2336,2336,2416,2416,2416,2416,2416,2416,2416,2416,2416,2416,2416,2336,2336,2336,2336,2336,2336,2336,2336,2336,2416,2416,2336,2336,2336,2336,2336,2264,2264,2264,2264,2264,2264,2336,2264,2336,2336,2264,2264,2264,2264,2264,2264,2264,2336,2264,2336,2336,2336,2336,2336,2336,2336,2416,2416,2336,2416,2336,2336,2416,2416,2336,2336,2336,2264,2336,2264,2264,2264,2264,2264,2264,2336,2336,2336,2336,2264,2264,2264,2264,2264,2264,2264,2264,2264,2264,2264,2264,2264,2264,2264,2264,2264,2264,2264,2264,2264,2264,2264,2264,2336,2264,2264,2336,2336,2336,2336,2336,2264,2264,2184,2112,2032,1960,1888,1888,1744,1600,1536,1400,1328,1200,1128,1064,1000,936,872,752,688,632,568,632,568,568,568,568,2816,2816,2816,2816,2904,2816,2816,2816,2904,2816,2816,2816,2816,2816,2816,2816,2816,2816,2816,2904,2904,2904,2904,2904,2904,2904,2904,2904,2816,2904,2904,2904,2904,2904,2904,2904,2904,2904,2904,2904,2904,2984,2984,2984,2984,2984,2984,2984,2984,2984,2904,2984,2904,2904,2904,2904,2904,2904,2984,2984,2984,2984,2984,2984,2904,2904,2984,2904,2904,2816,2816,2816,2816,2816,2736,2736,2736,2736,2736,2736,2736,2736,2736,2736,2736,2816,2816,2816,2904,2904,2816,2816,2816,2736,2816,2816,2736,2736,2736,2816,2816,2904,2736,2736,2736,2816,2816,2736,2736,2736,2736,2736,2736,2736,2736,2736,2736,2736,2736,2736
0,0,0,0,0,0,0,2656,2736,2736,2816,2816,2904,2904,2904,2904,2904,2904,2904,2904,2904,2904,2904,2904,2904,2904,2904,2904,2904,2904,2904,2904,2904,2816,2816,2904,2904,2904,2904,2904,2904,2904,2904,2904,2904,2904,2904,2904,2904,2904,2904,2904,2904,2904,2904,2904,2904,2904,2904,2904,2904,2904,2904,2904,2904,2816,2816,2816,2816,2816,2816,2816,2816,2816,2904,2904,2816,2816,2904,2904,2816,2816,2816,2816,2816,0,2816,2736,2816,2816,2816,2816,2816,2816,2816,2816,2816,2816,2816,2816,2816,2904,2736,2736,0,0,0,0,0,2656,2736,2736,2736,2736,2736,2736,2816,2816,2816,2736,2736,2816,2816,2816,2816,2816,2816,2736,2816,2816,2816,2816,2736,2736,392,448,512,512,512,568,568,632,632,632,688,816,872,1000,1064,1128,1264,1328,1400,1464,1600,1672,1816,1888,1960,1960,2032,2032,2112,2112,2184,2184,2184,2184,2184,2112,2112,2112,2112,2112,2112,2112,2112,2184,2184,2184,2184,2112,2112,2112,2112,2112,2032,2032,2032,2032,2032,2032,2032,2032,2032,2032,2032,2032,2032,1960,1960,1960,1960,1960,1888,1888,1888,1888,1888,1888,1888,1816,1816,1816,1816,1816,1744,1744,1816,1744,1672,1672,1672,1600,1600,1600,1600,1600,1600,1600,1600,1536,1536,1536,1464,1464,1400,1400,1400,1328,1328,1328,1328,1328,1264,1264,1264,1200,1200,1200,1200,1200,1200,1200,1200,1200,1264,1264,1328,1328,1328,1328,1328,1328,1328,1328,1328,1400,1400,1400,1400,1400,1400,1400,1464,1464,1464,1536,1536,1536,1600,1600,1600,1600,1600,1600,1600,1672,1672,1672,1672,1672,1672,1672,1672,1672,1672,1672,1672,1744,1744,1816,1816,1816,1816,1888,1888,1960,1960,1960,1960,1960,1960,1960,1960,1960,1960,2032,2032,1960,1960,2032,2032,2032,2032,2032,2032,2112,2112,2112,2112,2184,2184,2184,2184,2264,2264,2264,2264,2264,2264,2264,2264,2264,2264,2264,2336,2336,2336,2336,2336,2336,2336,2336,2336,2336,2336,2336,2336,2336,2336,2336,2336,2336,2336,2336,2336,2336,2336,2416,2416,2416,2416,2416,2416,2416,2416,2336,2336,2336,2336,2336,2336,2336,2336,2336,2336,2336,2336,2336,2336,2336,2336,2336,2336,2264,2264,2264,2264,2264,2336,2264,2336,2336,2336,2336,2264,2264,2264,2264,2264,2264,2264,2264,2336,2336,2336,2336,2336,2336,2336,2416,2416,2336,2416,2336,2336,2416,2416,2336,2336,2336,2336,2336,2336,2264,2336,2336,2336,2264,2264,2264,2336,2336,2264,2264,2264,2264,2264,2264,2264,2264,2264,2264,2264,2264,2264,2264,2264,2264,2264,2264,2336,2264,2264,2264,2264,2264,2264,2264,2264,2264,2264,2336,2336,2264,2264,2184,2184,2112,2032,1960,1888,1888,1744,1600,1536,1400,1328,1200,1128,1128,1000,936,816,752,688,632,568,632,568,568,568,632,2736,2736,2816,2816,2816,2816,2816,2816,2904,2816,2816,2816,2904,2816,2816,2904,2904,2904,2904,2904,2904,2904,2904,2904,2904,2904,2904,2904,2816,2904,2816,2816,2816,2816,2904,2904,2904,2904,2904,2904,2904,2904,2904,2984,2984,2984,2984,2984,2984,2984,2984,2984,2904,2904,2904,2904,2904,2904,2984,2904,2984,2984,2984,2904,2904,2904,2904,2904,2904,2816,2816,2816,2816,2736,2736,2736,2736,2736,2736,2736,2736,2736,2736,2736,2736,2736,2816,2816,2816,2904,2816,2816,2816,2736,2816,2816,2816,2736,2736,2816,2816,2904,2816,2816,2736,2816,2816,2736,2736,2736,2736,2736,2736,2736,2736,2736,2736,2736,2736,2736
0,0,0,0,0,0,0,2736,2736,2736,2816,2816,2904,2904,2904,2904,2904,2904,2904,2904,2904,2904,2904,2904,2904,2904,2904,2904,2904,2904,2904,2904,2904,2816,2816,2816,2816,2816,2904,2904,2904,2904,2904,2904,2904,2904,2904,2904,2904,2904,2904,2904,2904,2904,2904,2904,2904,2904,2904,2904,2904,2904,2904,2904,2904,2816,2816,2816,2816,2816,2816,2816,2816,2816,2816,2816,2816,2816,2816,2816,2816,2816,2816,2816,2904,2904,2816,2816,2816,2816,2816,2816,2736,2816,2816,2816,2816,2816,2736,2736,2736,2736,2736,2736,2736,0,2736,0,2736,2736,2736,2736,2736,2736,2736,2736,2816,2816,2816,2816,2736,2816,2816,2816,2816,2816,2816,2816,2816,2816,2816,2816,2816,2736,2736,448,448,512,512,568,568,568,632,688,752,816,872,936,1064,1128,1264,1328,1400,1464,1600,1672,1816,1888,1960,1960,2032,2032,2112,2184,2112,2112,2184,2112,2112,2112,2112,2112,2112,2112,2112,2112,2112,2184,2184,2184,2184,2112,2112,2112,2112,2112,2032,2032,2032,2032,1960,1960,2032,2032,2032,2032,1960,2032,2032,1960,1960,1960,1960,1960,1888,1888,1888,1888,1888,1888,1888,1816,1816,1816,1816,1816,1744,1744,1744,1744,1672,1672,1672,1672,1600,1600,1600,1600,1600,1600,1600,1536,1536,1536,1464,1464,1400,1400,1400,1400,1328,1328,1328,1328,1264,1264,1264,1200,1200,1200,1200,1200,1200,1200,1200,1200,1264,1264,1328,1328,1328,1328,1328,1328,1328,1328,1328,1328,1400,1400,1400,1400,1400,1464,1464,1464,1464,1536,1536,1536,1536,1536,1600,1600,1600,1600,1600,1600,1672,1672,1672,1672,1672,1672,1672,1672,1672,1672,1672,1744,1744,1816,1816,1888,1888,1888,1888,1888,1888,1888,1960,1960,1960,1960,1960,1960,1960,2032,2032,1960,1960,2032,1960,2032,2032,2032,2032,2032,2112,2112,2112,2184,2184,2184,2184,2264,2264,2264,2264,2264,2264,2264,2264,2264,2264,2264,2264,2264,2336,2336,2336,2336,2336,2336,2336,2336,2336,2336,2336,2336,2336,2416,2336,2336,2336,2336,2336,2336,2336,2336,2336,2336,2336,2416,2416,2416,2416,2336,2336,2336,2336,2336,2336,2336,2336,2336,2336,2336,2336,2416,2336,2336,2336,2336,2336,2336,2264,2264,2264,2336,2336,2336,2336,2336,2336,2336,2336,2264,2264,2264,2264,2264,2264,2264,2264,2336,2336,2336,2336,2336,2336,2416,2416,2416,2416,2336,2416,2416,2416,2336,2336,2336,2336,2336,2336,2264,2336,2336,2336,2264,2336,2336,2336,2264,2264,2264,2264,2264,2264,2264,2264,2264,2264,2264,2264,2264,2264,2336,2264,2264,2264,2336,2264,2264,2264,2264,2184,2264,2184,2184,2184,2264,2264,2336,2336,2264,2264,2184,2112,2032,1960,1888,1816,1816,1744,1600,1464,1400,1328,1264,1200,1200,1000,936,816,752,688,632,568,568,568,568,568,568,2736,2736,2816,2816,2816,2816,2816,2816,2816,2816,2816,2816,2904,2816,2816,2904,2904,2904,2904,2984,2984,2904,2984,2984,2904,2904,2904,2904,2816,2904,2904,2816,2904,2904,2904,2984,2984,2984,2904,2904,2984,2984,2984,2984,2984,2984,2984,2984,2984,2984,2984,2984,2984,2984,2904,2904,2904,2904,2904,2816,2904,2984,2984,2984,2904,2984,2984,2984,2904,2816,2816,2816,2816,2736,2736,2736,2736,2736,2736,2736,2736,2736,2736,2736,2736,2736,2816,2816,2816,2904,2816,2816,2816,2816,2816,2816,2736,2736,2736,2816,2816,2904,2816,2816,2816,2816,2816,2736,2736,2736,2736,2736,2736,2736,2736,2736,2736,2736,2736,2816
0,0,0,0,0,0,0,2736,2736,2736,2816,2816,2904,2904,2904,2904,2904,2904,2904,2904,2904,2904,2904,2904,2904,2904,2816,2816,2904,2816,2816,2816,2816,2816,2816,2816,2816,2816,2904,2904,2904,2904,2904,2904,2904,2904,2904,2904,2904,2904,2904,2904,2904,2904,2904,2904,2904,2904,2904,2904,2904,2904,2904,2904,2904,2816,2816,2816,2816,2816,2816,2816,2816,2816,2816,2816,2816,2816,2816,2816,2816,2816,2816,2816,2904,2904,2904,2816,2816,2816,2816,2816,2736,2816,2816,2816,2736,2736,2736,2736,2736,2736,2736,2736,2736,2736,2736,2736,2736,2736,2736,2816,2816,2816,2816,2816,2816,2816,2816,2816,2816,2816,2816,2816,2816,2736,2816,2816,2816,2816,2816,2816,2816,2816,2736,448,448,512,512,568,568,632,632,688,752,816,872,936,1064,1128,1200,1328,1400,1464,1600,1672,1816,1816,1888,1960,2032,2032,2032,2112,2112,2112,2184,2184,2184,2112,2112,2112,2112,2112,2112,2112,2112,2184,2184,2184,2184,2112,2112,2112,2112,2112,2112,2032,2032,2032,2032,2032,2032,2032,2032,2032,2032,2032,1960,1960,1960,1960,1960,1960,1888,1888,1888,1888,1888,1888,1888,1816,1816,1816,1816,1816,1744,1744,1744,1672,1672,1672,1672,1672,1600,1600,1600,1600,1600,1600,1600,1536,1536,1536,1536,1464,1400,1400,1400,1400,1328,1328,1328,1328,1264,1328,1264,1264,1200,1264,1200,1200,1200,1200,1200,1200,1264,1264,1328,1328,1328,1328,1328,1328,1328,1328,1328,1328,1400,1400,1400,1400,1400,1464,1464,1464,1464,1536,1536,1536,1536,1536,1536,1600,1600,1600,1600,1600,1600,1672,1672,1672,1672,1672,1672,1672,1672,1672,1744,1744,1744,1816,1888,1888,1888,1888,1888,1888,1888,1888,1888,1960,1960,1960,1960,1960,1960,2032,1960,1960,1960,2032,2032,2032,2032,2032,2032,2032,2112,2112,2112,2112,2184,2184,2184,2184,2184,2264,2264,2184,2184,2184,2184,2184,2264,2264,2264,2264,2264,2336,2336,2336,2336,2336,2336,2336,2336,2336,2336,2336,2336,2336,2336,2336,2336,2336,2336,2336,2336,2336,2336,2336,2336,2416,2416,2336,2336,2336,2336,2336,2336,2336,2336,2336,2336,2336,2336,2336,2336,2336,2336,2336,2336,2336,2336,2336,2264,2264,2264,2336,2336,2336,2336,2336,2336,2336,2336,2264,2264,2264,2264,2264,2264,2264,2264,2336,2336,2336,2336,2336,2336,2416,2416,2416,2416,2416,2416,2416,2416,2336,2336,2336,2336,2336,2336,2336,2336,2336,2336,2336,2336,2336,2336,2264,2264,2184,2184,2184,2264,2184,2184,2264,2264,2264,2264,2264,2264,2264,2264,2264,2264,2336,2264,2264,2264,2184,2184,2184,2184,2184,2184,2264,2264,2264,2264,2264,2264,2184,2112,2032,1960,1888,1816,1816,1744,1600,1536,1400,1328,1264,1200,1200,1064,936,816,752,688,632,568,568,568,568,568,568,2736,2736,2816,2816,2816,2816,2816,2816,2816,2904,2816,2816,2904,2904,2904,2904,2904,2904,2816,2816,2816,2904,2904,2904,2904,2904,2904,2904,2904,2904,2904,2904,2904,2904,2904,2984,2904,2904,2904,2904,2984,2984,2904,2984,2984,2984,2984,3072,2984,2984,3072,3072,3072,2984,2984,2984,2984,2904,2904,2816,2904,2984,2984,2984,2904,2984,2984,2984,2984,2816,2816,2816,2816,2736,2736,2736,2736,2736,2736,2816,2736,2736,2736,2736,2736,2816,2816,2816,2816,2816,2816,2816,2816,2736,2736,2736,2736,2736,2736,2816,2816,2816,2816,2816,2816,2816,2904,2816,2816,2736,2736,2736,2736,2736,2736,2736,2736,2736,2736,2736
0,0,0,0,0,0,0,2736,2736,2736,2816,2816,2816,2904,2904,2904,2904,2904,2904,2904,2904,2904,2904,2904,2904,2904,2816,2816,2904,2816,2816,2816,2816,2736,2816,2816,2816,2816,2904,2904,2904,2904,2904,2904,2904,2904,2904,2904,2904,2904,2904,2904,2904,2904,2904,2904,2904,2904,2904,2816,2816,2904,2816,2904,2904,2816,2816,2816,2816,2816,2816,2816,2816,2816,2816,2816,2736,2816,2816,2816,2816,2816,2816,2816,2904,2904,2816,2816,2816,2816,2816,2736,2736,2736,2736,2816,2736,2736,2736,2736,2736,2736,2736,2736,2736,2736,2736,2736,2816,2736,2816,2816,2816,2816,2816,2816,2816,2816,2816,2816,2816,2816,2816,2816,2816,2736,2816,2816,2816,2816,2816,2816,2816,2816,2736,448,448,512,512,568,568,568,632,632,688,752,816,936,1064,1128,1200,1264,1400,1464,1600,1672,1816,1816,1888,1960,2032,2032,2032,2112,2112,2112,2184,2184,2184,2112,2112,2112,2112,2112,2112,2112,2112,2112,2112,2112,2112,2112,2112,2184,2184,2112,2112,2112,2112,2032,2032,2032,2032,2032,2032,2032,2032,2032,2032,1960,1960,1960,1960,1960,1888,1888,1888,1888,1888,1888,1888,1888,1888,1816,1816,1816,1744,1744,1744,1672,1672,1672,1672,1672,1600,1600,1600,1600,1600,1600,1600,1536,1536,1536,1536,1464,1464,1400,1400,1400,1328,1328,1328,1328,1264,1328,1264,1264,1264,1264,1200,1264,1264,1200,1200,1264,1264,1264,1328,1328,1328,1328,1328,1328,1328,1328,1328,1328,1400,1328,1400,1400,1400,1400,1464,1464,1464,1464,1536,1536,1536,1536,1536,1600,1600,1600,1600,1600,1600,1600,1600,1672,1672,1672,1672,1672,1672,1672,1744,1744,1744,1816,1816,1816,1816,1888,1888,1888,1888,1888,1888,1888,1888,1888,1960,1960,1960,1960,1960,1960,1960,1960,1960,1960,2032,2032,2032,2032,2112,2112,2112,2112,2112,2184,2184,2184,2184,2184,2184,2184,2184,2184,2184,2184,2184,2264,2264,2264,2264,2336,2336,2336,2336,2336,2336,2336,2336,2336,2336,2336,2336,2336,2336,2336,2336,2336,2336,2336,2336,2336,2336,2336,2336,2336,2336,2336,2336,2336,2416,2336,2336,2336,2336,2336,2336,2336,2336,2336,2336,2336,2336,2336,2264,2336,2336,2336,2264,2264,2336,2336,2336,2336,2336,2336,2336,2336,2336,2264,2264,2264,2264,2264,2264,2264,2264,2336,2336,2336,2336,2336,2336,2416,2416,2416,2416,2416,2416,2416,2416,2416,2416,2416,2336,2336,2336,2336,2336,2336,2336,2336,2336,2336,2336,2264,2264,2264,2264,2264,2264,2264,2264,2264,2264,2264,2264,2264,2264,2264,2264,2264,2264,2264,2264,2184,2184,2184,2184,2184,2184,2184,2184,2184,2264,2264,2264,2264,2184,2184,2112,2032,1960,1888,1888,1816,1744,1672,1464,1400,1328,1264,1200,1200,1064,872,816,752,632,568,568,568,568,568,568,568,2736,2736,2816,2816,2816,2816,2816,2816,2816,2904,2904,2904,2904,2904,2904,2904,2904,2904,2904,2904,2904,2904,2984,2984,2984,2984,2984,2904,2904,2904,2904,2904,2904,2904,2904,2984,2904,2904,2904,2904,2984,2984,2984,2984,2984,2984,2984,2984,2984,2984,2984,2984,2984,2984,2904,2904,2904,2816,2904,2816,2904,2984,2984,2984,2904,2984,3072,2984,2984,2904,2904,2816,2904,2816,2736,2736,2736,2736,2736,2736,2736,2736,2736,2736,2736,2736,2816,2816,2816,2904,2816,2816,2816,2736,2736,2736,2736,2736,2736,2816,2816,2816,2816,2816,2816,2816,2816,2816,2816,2736,2736,2736,2736,2736,2736,2736,2736,2736,2736,2736
0,0,0,0,0,0,0,2736,2736,2736,2816,2816,2816,2904,2904,2904,2904,2904,2904,2904,2904,2904,2904,2904,2904,2904,2816,2816,2816,2816,2816,2816,2816,2816,2816,2816,2816,2816,2904,2904,2904,2904,2904,2904,2904,2904,2904,2904,2904,2904,2816,2904,2816,2904,2904,2904,2904,2904,2904,2816,2904,2904,2816,2904,2904,2816,2816,2816,2816,2816,2816,2816,2816,2816,2816,2816,2816,2816,2816,2816,2816,2816,2816,2816,2816,2816,2816,2816,2816,2816,2736,2736,2736,2816,2816,2816,2736,2736,2736,2816,2736,2816,2736,2736,2816,2816,2816,2816,2816,2816,2816,2816,2816,2816,2816,2816,2816,2816,2816,2816,2816,2816,2816,2816,2816,2736,2736,2736,2816,2816,2816,2816,2816,2816,2816,2816,512,448,512,568,568,568,632,688,688,816,872,936,1064,1128,1264,1328,1400,1464,1600,1672,1816,1816,1888,1960,2032,2032,2032,2112,2112,2112,2112,2112,2112,2112,2112,2112,2112,2112,2112,2112,2112,2112,2112,2112,2112,2112,2112,2184,2112,2112,2112,2112,2112,2032,2032,2032,2032,2032,2032,2032,2032,2032,2032,1960,1960,1960,1960,1960,1888,1888,1888,1888,1888,1888,1816,1816,1888,1816,1816,1816,1744,1744,1744,1672,1672,1672,1672,1672,1600,1600,1600,1600,1600,1600,1600,1536,1536,1536,1536,1464,1464,1400,1400,1400,1328,1328,1328,1328,1264,1328,1264,1264,1264,1264,1264,1264,1264,1200,1200,1200,1264,1264,1264,1328,1328,1328,1328,1328,1328,1328,1328,1328,1400,1328,1400,1400,1400,1400,1400,1464,1464,1464,1464,1536,1536,1536,1536,1536,1600,1600,1600,1600,1600,1600,1600,1672,1672,1672,1672,1672,1672,1672,1744,1744,1744,1744,1816,1816,1816,1816,1888,1888,1888,1888,1888,1888,1888,1888,1888,1960,1960,1960,1960,1888,1960,1960,1960,1960,1960,2032,2032,2032,2032,2032,2112,2112,2112,2112,2184,2184,2184,2184,2184,2184,2184,2184,2184,2184,2184,2264,2264,2264,2264,2264,2336,2336,2336,2336,2336,2336,2336,2336,2336,2336,2336,2336,2336,2336,2336,2336,2336,2336,2336,2336,2336,2336,2336,2336,2336,2336,2416,2336,2336,2336,2416,2416,2416,2336,2336,2336,2336,2336,2336,2264,2264,2264,2264,2264,2336,2264,2264,2264,2336,2336,2336,2336,2336,2336,2336,2336,2336,2264,2264,2264,2264,2264,2336,2336,2336,2336,2336,2336,2336,2336,2336,2416,2336,2416,2416,2416,2416,2416,2416,2416,2416,2416,2416,2416,2336,2336,2336,2336,2336,2336,2336,2264,2264,2264,2264,2184,2184,2184,2264,2264,2184,2264,2264,2264,2264,2264,2264,2264,2264,2184,2264,2264,2264,2184,2184,2184,2184,2184,2184,2184,2184,2184,2184,2264,2264,2264,2184,2184,2112,2032,2032,1888,1816,1816,1816,1672,1400,1328,1328,1264,1128,1200,1128,1000,752,688,632,568,568,568,568,568,632,632,2496,2656,2736,2816,2816,2816,2816,2816,2904,2904,2904,2904,2904,2904,2904,2904,2904,2904,2904,2904,2904,2904,2984,2984,2984,2984,2984,2904,2904,2904,2904,2816,2904,2904,2904,2984,2904,2904,2904,2904,2984,2984,2984,2984,2984,2984,2984,3072,2984,2984,2984,2984,2984,2984,2984,2904,2904,2816,2816,2816,2816,2904,2984,2984,2904,2984,3072,2984,2984,2904,2904,2816,2904,2816,2736,2736,2736,2736,2736,2736,2736,2736,2736,2736,2816,2816,2816,2736,2816,2816,2816,2736,2736,2736,2736,2736,2736,2736,2736,2816,2816,2816,2816,2816,2816,2816,2816,2816,2816,2736,2736,2736,2816,2736,2736,2736,2736,2736,2736,2736
0,0,0,0,0,0,0,2736,2736,2816,2816,2816,2904,2904,2904,2904,2904,2904,2904,2904,2904,2904,2904,2904,2904,2904,2816,2816,2816,2816,2816,2816,2816,2816,2816,2816,2816,2816,2904,2904,2904,2904,2904,2904,2904,2904,2816,2816,2816,2816,2816,2816,2816,2904,2904,2904,2904,2904,2904,2816,2904,2904,2816,2904,2904,2816,2816,2816,2816,2816,2816,2816,2816,2816,2816,2816,2816,2816,2816,2816,2816,2816,2816,2816,2816,2816,2816,2816,2816,2816,2736,2736,2736,2736,2736,2816,2736,2736,2736,2816,2736,2816,2736,2736,2816,2816,2816,2816,2816,2816,2816,2816,2816,2816,2816,2816,2816,2816,2816,2816,2816,2816,2816,2816,2816,2736,2736,2736,2816,2816,2816,2816,2736,2816,2736,2816,512,512,512,512,568,632,632,688,688,816,872,936,1064,1128,1264,1328,1400,1536,1600,1672,1816,1888,1888,1960,2032,2032,2032,2112,2112,2112,2112,2112,2112,2112,2112,2112,2112,2112,2112,2112,2112,2112,2112,2112,2112,2112,2112,2184,2112,2112,2112,2112,2112,2032,2032,2032,2032,2032,2032,2032,2032,2032,2032,2032,1960,1960,1960,1960,1888,1888,1888,1888,1888,1888,1888,1888,1888,1888,1816,1816,1816,1744,1744,1672,1672,1672,1672,1672,1672,1600,1600,1600,1600,1600,1600,1536,1536,1536,1464,1464,1400,1400,1400,1400,1328,1328,1328,1328,1264,1328,1264,1264,1264,1264,1264,1264,1264,1200,1200,1264,1264,1264,1264,1328,1328,1328,1328,1328,1328,1328,1328,1328,1400,1328,1400,1400,1400,1400,1400,1400,1400,1464,1464,1464,1536,1536,1536,1536,1600,1600,1600,1600,1600,1600,1600,1672,1672,1672,1672,1672,1672,1672,1672,1744,1744,1744,1816,1816,1816,1816,1888,1888,1888,1888,1888,1888,1888,1888,1888,1888,1960,1960,1960,1888,1888,1960,1888,1960,1960,1960,1960,2032,2032,2032,2032,2112,2112,2112,2112,2184,2184,2184,2184,2184,2184,2184,2184,2184,2184,2184,2184,2184,2264,2264,2264,2336,2336,2336,2336,2336,2336,2336,2336,2336,2336,2336,2336,2336,2264,2264,2264,2336,2336,2336,2336,2336,2336,2336,2336,2336,2336,2336,2336,2336,2416,2416,2416,2336,2336,2336,2336,2336,2264,2264,2264,2264,2264,2264,2336,2264,2264,2264,2336,2336,2336,2336,2336,2336,2336,2336,2336,2264,2264,2264,2264,2336,2336,2336,2336,2336,2336,2336,2336,2336,2336,2416,2336,2416,2416,2416,2416,2416,2416,2416,2416,2416,2416,2416,2336,2336,2336,2336,2336,2336,2336,2336,2264,2264,2264,2184,2184,2184,2184,2184,2184,2264,2264,2264,2264,2264,2264,2264,2264,2184,2264,2264,2184,2184,2184,2184,2184,2112,2184,2184,2184,2184,2184,2264,2264,2264,2264,2184,2112,2032,2032,1888,1816,1816,1744,1672,1464,1400,1328,1264,1128,1128,1064,1000,752,688,632,568,568,568,568,568,568,568,2496,2576,2736,2816,2816,2816,2816,2816,2816,2904,2904,2904,2904,2904,2904,2904,2904,2904,2904,2904,2904,2904,2984,2984,2984,2984,2984,2984,2904,2904,2904,2816,2904,2904,2904,2984,2904,2904,2904,2904,2904,2984,2904,2904,2984,2984,2984,2984,2984,2984,2984,2984,2984,2984,2984,2904,2984,2984,2816,2816,2816,2904,2904,2984,2984,2984,3072,3072,2984,2904,2904,2816,2904,2816,2816,2736,2736,2816,2816,2816,2736,2736,2736,2736,2816,2816,2816,2736,2816,2816,2736,2736,2736,2736,2736,2736,2736,2736,2736,2736,2736,2816,2736,2816,2816,2816,2816,2816,2816,2816,2816,2736,2816,2736,2736,2816,2736,2736,2736,2736
0,0,0,0,0,0,0,2816,2816,2816,2816,2816,2904,2904,2904,2904,2904,2904,2904,2904,2904,2904,2904,2904,2904,2904,2816,2816,2816,2816,2816,2816,2816,2816,2816,2816,2816,2904,2904,2904,2904,2904,2904,2904,2904,2816,2816,2816,2816,2816,2816,2816,2816,2816,2904,2904,2904,2904,2904,2816,2904,2904,2816,2904,2904,2816,2816,2816,2816,2816,2816,2816,2816,2816,2816,2816,2816,2816,2816,2816,2816,2816,2816,2816,2816,2816,2816,2816,2816,2816,2736,2656,2736,2736,2736,2736,2736,2736,2736,2816,2736,2736,2736,2736,2816,2816,2816,2816,2816,2816,2816,2816,2816,2816,2816,2816,2816,2816,2816,2816,2816,2816,2816,2816,2816,2736,2736,2736,2816,2816,2816,2816,2736,2816,2736,2816,448,448,448,512,568,632,632,688,752,816,872,936,1064,1128,1264,1328,1400,1536,1600,1672,1816,1888,1888,1960,1960,1960,1960,2032,2032,2032,2112,2112,2112,2112,2112,2112,2112,2112,2112,2112,2112,2112,2112,2112,2112,2112,2112,2112,2112,2112,2112,2112,2112,2032,2032,2032,2032,2032,2032,2032,2032,2032,2032,2032,1960,1960,1960,1960,1888,1888,1888,1888,1888,1888,1888,1888,1888,1888,1888,1888,1816,1744,1744,1672,1672,1672,1672,1672,1672,1600,1600,1600,1536,1536,1536,1536,1536,1536,1464,1464,1400,1400,1400,1400,1400,1328,1328,1328,1328,1328,1328,1264,1328,1264,1264,1264,1264,1200,1264,1264,1264,1264,1264,1328,1328,1328,1328,1328,1328,1328,1328,1328,1400,1328,1400,1400,1400,1400,1400,1400,1400,1464,1464,1464,1464,1536,1536,1536,1600,1600,1600,1600,1600,1600,1600,1672,1672,1672,1672,1672,1672,1672,1672,1672,1744,1744,1744,1744,1816,1816,1816,1888,1888,1888,1888,1888,1888,1888,1888,1888,1960,1960,1960,1888,1888,1888,1888,1960,1960,1960,1960,1960,2032,2032,2032,2112,2112,2112,2112,2112,2184,2184,2184,2184,2184,2184,2184,2184,2184,2184,2184,2184,2184,2184,2264,2264,2264,2264,2264,2336,2336,2336,2336,2264,2264,2264,2336,2336,2264,2264,2264,2336,2336,2336,2336,2336,2336,2336,2336,2336,2336,2336,2264,2336,2336,2336,2336,2336,2336,2336,2336,2336,2264,2264,2264,2264,2184,2264,2264,2264,2264,2264,2264,2336,2336,2264,2264,2264,2264,2264,2264,2264,2264,2264,2264,2336,2336,2336,2416,2336,2336,2336,2336,2336,2336,2416,2336,2336,2336,2336,2416,2416,2416,2336,2416,2416,2416,2416,2336,2336,2336,2336,2336,2336,2336,2336,2264,2264,2264,2264,2184,2184,2184,2184,2184,2264,2184,2264,2264,2264,2264,2264,2264,2184,2264,2264,2184,2184,2184,2184,2184,2184,2184,2184,2184,2184,2184,2264,2264,2264,2264,2184,2184,2112,2112,1960,1816,1816,1744,1600,1464,1400,1328,1264,1128,1128,1064,1000,752,688,632,568,568,568,568,568,568,568,2496,2576,2736,2816,2816,2816,2816,2816,2816,2904,2816,2904,2904,2904,2904,2904,2904,2904,2904,2984,2904,2904,2984,2984,2984,2984,2984,2984,2984,2984,2904,2816,2816,2904,2816,2904,2904,2904,2984,2984,2984,2984,2904,2904,2984,2904,2984,2984,2904,2984,2984,2984,2984,2984,2904,2904,3072,2904,2816,2816,2816,2904,2904,2984,2984,2984,2984,2984,2984,2904,2904,2904,2904,2816,2816,2816,2736,2736,2736,2736,2736,2736,2736,2736,2736,2736,2816,2816,2816,2816,2736,2736,2736,2736,2736,2736,2736,2736,2736,2736,2736,2736,2736,2816,2816,2816,2816,2816,2816,2816,2816,2736,2816,2736,2736,2736,2736,2736,2736,2736
0,0,0,0,0,0,0,2816,2816,2816,2816,2816,2904,2904,2904,2904,2904,2904,2904,2904,2904,2904,2816,2904,2904,2904,2904,2904,2904,2904,2816,2816,2816,2904,2816,2816,2816,2904,2904,2904,2816,2816,2904,2904,2904,2816,2816,2816,2816,2816,2816,2904,2816,2816,2904,2904,2904,2904,2904,2816,2904,2904,2816,2904,2904,2816,2816,2816,2816,2816,2816,2816,2816,2816,2816,2816,2816,2816,2816,2816,2816,2816,2816,2816,2816,2816,2816,2816,2816,2816,2736,2656,2736,2736,2736,2736,2656,2656,2736,2736,2736,2736,2736,2816,2816,2816,2816,2816,2816,2816,2816,2816,2816,2816,2816,2816,2816,2816,2816,2816,2816,2816,2736,2736,2736,2736,2736,2736,2736,2736,2736,2816,2736,2816,2736,448,448,448,448,512,568,632,632,688,752,816,872,936,1064,1128,1264,1328,1400,1464,1600,1744,1816,1888,1888,1960,1960,1960,2032,2032,2032,2032,2112,2112,2112,2112,2112,2112,2112,2112,2112,2112,2184,2184,2112,2112,2112,2112,2112,2112,2112,2112,2112,2112,2112,2032,2032,2032,2032,2032,2032,2032,2112,2032,2032,2032,1960,1960,1960,1960,1960,1888,1888,1888,1888,1888,1888,1888,1888,1888,1888,1888,1816,1744,1744,1672,1672,1672,1672,1672,1600,1600,1600,1536,1536,1536,1536,1536,1536,1536,1464,1464,1400,1400,1400,1400,1328,1328,1328,1328,1328,1328,1264,1264,1264,1264,1264,1264,1264,1264,1264,1264,1200,1264,1264,1264,1328,1328,1328,1328,1328,1328,1328,1328,1400,1328,1400,1400,1400,1400,1400,1400,1400,1400,1464,1464,1464,1464,1536,1536,1600,1600,1600,1600,1600,1600,1600,1672,1672,1672,1672,1672,1672,1672,1672,1672,1672,1744,1744,1744,1816,1816,1816,1816,1816,1888,1888,1888,1888,1888,1888,1888,1888,1888,1888,1888,1888,1888,1888,1888,1960,1960,1960,1960,2032,2032,2032,2112,2112,2112,2112,2112,2112,2184,2184,2184,2184,2184,2184,2184,2184,2184,2184,2184,2184,2184,2264,2264,2264,2264,2264,2336,2336,2336,2264,2264,2264,2264,2264,2264,2264,2264,2264,2336,2264,2336,2336,2336,2264,2264,2264,2264,2336,2336,2264,2264,2336,2336,2336,2336,2336,2336,2336,2336,2264,2264,2264,2264,2184,2264,2264,2264,2264,2264,2264,2264,2336,2264,2264,2264,2264,2264,2264,2264,2264,2264,2264,2336,2336,2336,2336,2336,2336,2336,2336,2336,2336,2336,2336,2336,2336,2336,2416,2416,2336,2336,2336,2336,2336,2336,2336,2336,2336,2336,2336,2336,2336,2336,2264,2264,2264,2264,2184,2184,2184,2184,2184,2264,2184,2264,2264,2264,2264,2264,2184,2184,2264,2184,2184,2184,2184,2184,2184,2184,2184,2184,2184,2264,2264,2184,2264,2264,2264,2184,2184,2112,2112,1960,1816,1816,1744,1600,1464,1400,1328,1264,1128,1128,1064,872,752,688,632,568,568,568,568,568,568,568,568,2576,2736,2816,2816,2816,2816,2816,2816,2904,2816,2904,2904,2904,2904,2904,2904,2904,2904,2984,2904,2904,2984,2984,2984,2984,2984,2904,2904,2904,2904,2816,2816,2816,2816,2904,2816,2904,2904,2984,2984,2984,2904,2904,2904,2904,2904,2904,2904,2904,2984,2984,3072,2984,2984,2904,3072,2816,2816,2816,2816,2904,2904,2984,2904,2984,2984,3072,2984,2904,2904,2904,2904,2816,2816,2736,2736,2736,2736,2736,2736,2736,2736,2736,2736,2736,2816,2816,2816,2816,2736,2736,2736,2736,2656,2656,2736,2736,2656,2736,2736,2736,2736,2816,2816,2816,2816,2816,2904,2816,2904,2816,2904,2816,2736,2816,2736,2736,2736,2736
0,0,0,0,0,0,0,2816,2816,2816,2816,2904,2904,2904,2904,2904,2904,2816,2904,2904,2904,2816,2816,2816,2904,2904,2816,2904,2904,2816,2816,2816,2816,2904,2816,2816,2816,2904,2904,2904,2816,2816,2816,2816,2816,2816,2816,2816,2816,2816,2816,2816,2816,2816,2904,2904,2904,2904,2904,2816,2904,2904,2904,2904,2904,2816,2816,2816,2816,2816,2816,2816,2816,2816,2816,2816,2816,2816,2816,2816,2816,2816,2816,2816,2816,2816,2816,2816,2816,2736,2736,2736,2736,2736,2736,2736,2736,2736,2736,2816,2736,2736,2816,2816,2816,2816,2816,2816,2816,2816,2816,2816,2816,2816,2816,2816,2816,2816,2816,2816,2816,2816,2816,2736,2736,2736,2736,2736,2736,2736,2736,2816,2736,2816,2816,392,448,448,448,512,568,568,632,688,688,816,872,936,1064,1128,1264,1328,1400,1536,1600,1744,1816,1888,1888,1960,1960,1960,1960,2032,2032,2032,2032,2032,2032,2112,2112,2112,2112,2112,2112,2184,2184,2112,2112,2112,2112,2112,2112,2112,2112,2112,2112,2112,2112,2112,2032,2032,2032,2032,2032,2032,2032,2032,2032,2032,1960,1960,1960,1960,1960,1888,1888,1888,1888,1888,1888,1888,1888,1888,1888,1888,1816,1816,1744,1672,1672,1672,1672,1672,1600,1600,1600,1536,1536,1536,1536,1536,1536,1536,1536,1464,1400,1400,1400,1400,1328,1328,1328,1328,1264,1264,1264,1264,1264,1264,1264,1264,1264,1264,1264,1264,1264,1264,1264,1264,1328,1328,1328,1328,1328,1328,1328,1328,1328,1328,1400,1400,1400,1400,1400,1400,1400,1400,1400,1400,1464,1464,1464,1536,1600,1600,1600,1600,1600,1600,1672,1672,1672,1672,1672,1672,1672,1672,1672,1672,1672,1672,1744,1744,1744,1816,1816,1816,1888,1888,1888,1888,1888,1888,1888,1888,1888,1888,1888,1888,1888,1888,1888,1888,1960,1960,1960,1960,2032,2032,2032,2032,2032,2112,2112,2112,2112,2112,2112,2112,2184,2184,2184,2184,2184,2184,2184,2184,2184,2184,2184,2264,2264,2264,2264,2336,2336,2336,2264,2264,2264,2264,2264,2264,2264,2264,2264,2336,2264,2264,2336,2336,2264,2264,2264,2264,2264,2264,2264,2264,2336,2336,2336,2336,2336,2336,2336,2336,2264,2264,2264,2264,2264,2264,2264,2264,2264,2264,2264,2264,2264,2264,2264,2264,2264,2264,2264,2264,2264,2264,2264,2336,2336,2336,2336,2336,2336,2336,2336,2336,2336,2336,2336,2416,2336,2336,2336,2336,2336,2264,2336,2336,2336,2264,2264,2264,2264,2264,2336,2336,2336,2336,2264,2264,2264,2264,2184,2184,2184,2184,2264,2264,2184,2184,2184,2264,2264,2184,2184,2184,2184,2184,2184,2184,2264,2264,2264,2184,2264,2264,2264,2264,2264,2264,2264,2264,2264,2184,2184,2112,2032,1960,1816,1816,1744,1600,1536,1400,1328,1328,1200,1128,1064,872,752,688,632,568,568,568,568,568,568,568,568,2576,2736,2816,2816,2816,2816,2816,2904,2904,2816,2904,2904,2904,2904,2904,2904,2816,2904,2904,2816,2816,2904,2904,2984,2904,2984,2904,2904,2904,2816,2816,2816,2816,2816,2816,2816,2904,2904,2904,2984,2984,2904,2904,2904,2904,2904,2904,2904,2904,2984,2984,3072,2984,2984,2904,3072,2904,2816,2816,2816,2904,2904,2984,2984,3072,3072,3072,2984,2904,2904,2904,2904,2816,2816,2736,2736,2816,2816,2816,2736,2736,2816,2736,2816,2816,2816,2816,2816,2816,2736,2816,2736,2736,2736,2736,2736,2736,2736,2736,2736,2736,2736,2816,2736,2816,2816,2816,2816,2816,2816,2816,2904,2816,2736,2736,2736,2736,2656,2656
0,0,0,0,0,0,0,2816,2904,2904,2816,2816,2904,2904,2904,2904,2816,2816,2904,2816,2816,2816,2816,2816,2904,2904,2816,2816,2904,2904,2816,2816,2816,2904,2816,2816,2816,2904,2904,2816,2816,2816,2816,2816,2816,2816,2816,2816,2816,2816,2816,2816,2816,2816,2816,2904,2904,2904,2816,2816,2816,2816,2816,2904,2904,2816,2816,2816,2816,2816,2816,2816,2816,2816,2816,2816,2816,2816,2816,2816,2816,2816,2816,2816,2816,2816,2816,2816,2736,2736,2736,2736,2736,2736,2736,2736,2736,2736,2816,2816,2816,2816,2816,2816,2816,2816,2816,2816,2816,2816,2816,2816,2816,2816,2816,2816,2816,2816,2816,2816,2816,2816,2816,2736,2736,2736,2736,2736,2736,2736,2736,2736,2736,2816,2816,392,448,448,448,512,568,568,632,688,752,816,872,936,1064,1200,1264,1400,1464,1536,1600,1744,1816,1888,1888,1888,1960,1960,1960,2032,2032,2032,2032,2032,2032,2112,2112,2112,2112,2112,2112,2184,2184,2112,2112,2112,2112,2112,2112,2112,2112,2112,2112,2112,2112,2112,2032,2032,2032,2032,2032,2032,2032,2032,2032,2032,1960,1960,1960,1960,1960,1888,1888,1888,1888,1888,1888,1888,1888,1888,1888,1888,1816,1816,1744,1672,1744,1672,1672,1672,1600,1600,1600,1536,1536,1536,1536,1536,1536,1536,1464,1464,1400,1400,1400,1400,1328,1328,1328,1264,1264,1264,1264,1264,1328,1328,1328,1328,1264,1264,1264,1264,1264,1264,1264,1264,1328,1328,1328,1328,1328,1328,1328,1328,1328,1328,1400,1400,1400,1400,1400,1400,1400,1400,1400,1400,1464,1464,1464,1536,1600,1600,1600,1600,1600,1600,1672,1672,1672,1672,1672,1672,1672,1672,1672,1672,1672,1672,1744,1744,1744,1744,1816,1816,1888,1888,1888,1888,1888,1888,1888,1888,1888,1888,1888,1888,1888,1888,1888,1960,1960,1960,1960,2032,2032,2032,2032,2032,2032,2032,2112,2032,2112,2112,2112,2112,2112,2184,2112,2184,2184,2184,2184,2184,2184,2184,2184,2264,2264,2264,2264,2336,2336,2336,2264,2264,2264,2264,2264,2264,2264,2264,2264,2264,2264,2336,2336,2264,2264,2264,2264,2264,2264,2264,2264,2264,2264,2336,2336,2336,2336,2336,2336,2336,2264,2264,2184,2264,2184,2264,2264,2184,2264,2264,2264,2264,2264,2264,2264,2264,2264,2264,2264,2264,2336,2336,2336,2336,2416,2416,2336,2336,2336,2336,2336,2336,2336,2336,2336,2336,2336,2336,2336,2336,2336,2264,2336,2336,2336,2264,2264,2264,2264,2264,2336,2336,2336,2264,2264,2264,2264,2264,2264,2184,2184,2264,2264,2264,2184,2264,2264,2264,2264,2184,2184,2184,2184,2184,2184,2184,2264,2264,2264,2184,2264,2264,2264,2264,2264,2184,2184,2264,2264,2184,2184,2112,2112,1960,1888,1816,1816,1600,1536,1400,1328,1264,1200,1128,1000,872,752,688,632,568,568,568,568,568,568,568,568,2576,2736,2816,2816,2904,2904,2904,2904,2904,2816,2904,2904,2904,2904,2904,2904,2904,2904,2904,2816,2816,2904,2904,2904,2904,2904,2904,2904,2816,2816,2816,2816,2816,2816,2816,2816,2904,2904,2904,2904,2984,2904,2904,2904,2904,2904,2904,2816,2904,2904,2984,2984,2984,2984,2904,2904,2904,2904,2904,2904,2904,2904,2984,2984,2984,3072,2984,2984,2904,2904,2816,2904,2816,2816,2736,2736,2816,2816,2816,2736,2736,2816,2816,2816,2816,2816,2816,2816,2736,2736,2816,2736,2736,2656,2736,2736,2736,2736,2736,2736,2736,2736,2816,2736,2816,2816,2816,2816,2816,2904,2816,2904,2816,2816,2736,2736,2736,2656,2656
0,0,0,0,0,0,0,2816,2816,2816,2816,2816,2816,2816,2816,2904,2816,2816,2816,2816,2816,2816,2816,2816,2904,2904,2816,2904,2904,2904,2816,2816,2816,2816,2816,2816,2816,2904,2816,2816,2816,2736,2816,2816,2816,2816,2816,2816,2816,2816,2816,2816,2816,2816,2816,2816,2904,2904,2816,2816,2816,2816,2816,2816,2816,2816,2816,2816,2816,2816,2816,2816,2816,2816,2816,2816,2816,2736,2816,2816,2816,2816,2816,2816,2816,2816,2816,2736,2736,2736,2736,2736,0,2736,2736,2816,2816,2816,2816,2816,2816,2816,2816,2816,2816,2816,2816,2816,2816,2816,2816,2816,2816,2816,2816,2816,2816,2816,2816,2816,2816,2816,2736,2736,2736,2656,2736,2736,2736,2736,2736,2736,2736,2736,2816,392,448,448,448,512,568,568,632,688,752,816,872,936,1128,1200,1264,1328,1400,1536,1600,1744,1816,1888,1888,1888,1960,1960,1960,2032,2032,2032,2032,2032,2032,2032,2112,2032,2032,2032,2112,2112,2184,2112,2112,2112,2112,2112,2112,2112,2112,2112,2112,2112,2112,2112,2032,2032,2032,2032,2032,2032,2032,2032,2032,2032,1960,1960,1960,1960,1960,1888,1888,1888,1888,1888,1888,1888,1888,1888,1888,1888,1816,1816,1744,1744,1744,1744,1672,1672,1600,1600,1600,1536,1536,1536,1536,1536,1536,1536,1464,1464,1400,1400,1400,1328,1328,1328,1264,1264,1264,1264,1264,1264,1264,1264,1328,1328,1264,1264,1264,1264,1264,1264,1264,1264,1328,1328,1328,1328,1328,1328,1328,1328,1328,1328,1328,1400,1400,1400,1400,1400,1400,1400,1400,1400,1464,1464,1464,1536,1600,1600,1600,1600,1600,1600,1600,1672,1672,1672,1672,1672,1672,1672,1672,1672,1672,1672,1672,1672,1744,1744,1744,1816,1816,1888,1888,1888,1888,1888,1888,1888,1888,1888,1888,1816,1888,1888,1888,1888,1888,1960,1960,1960,1960,1960,1960,2032,2032,2032,2032,2032,2032,2112,2112,2112,2112,2112,2112,2112,2112,2112,2184,2112,2184,2184,2184,2184,2184,2264,2264,2264,2264,2336,2264,2264,2264,2264,2264,2264,2264,2264,2264,2264,2264,2336,2336,2264,2264,2264,2264,2264,2264,2264,2264,2264,2264,2336,2336,2336,2336,2336,2336,2336,2264,2184,2184,2184,2184,2184,2184,2184,2264,2264,2264,2264,2264,2264,2264,2264,2264,2264,2264,2264,2264,2264,2336,2336,2416,2336,2336,2336,2336,2336,2336,2336,2336,2336,2336,2336,2264,2264,2336,2336,2264,2264,2264,2336,2336,2264,2264,2264,2264,2264,2264,2264,2264,2264,2264,2264,2264,2264,2264,2184,2184,2264,2264,2264,2184,2264,2264,2264,2264,2184,2184,2184,2184,2184,2184,2184,2264,2264,2264,2184,2184,2184,2184,2264,2184,2184,2184,2264,2264,2184,2184,2112,2112,2032,1888,1816,1744,1536,1464,1400,1328,1264,1200,1064,1000,872,752,688,632,568,568,568,568,568,568,568,632,752,2816,2816,2816,2816,2904,2904,2904,2904,2816,2904,2904,2904,2904,2904,2904,2904,2904,2904,2904,2816,2904,2904,2904,2904,2904,2904,2904,2816,2816,2816,2816,2816,2816,2816,2816,2816,2904,2904,2904,2904,2904,2904,2904,2816,2816,2816,2816,2816,2816,2904,2904,2904,2904,2904,2904,2904,2904,2904,2904,2904,2904,2904,2984,2984,2984,2984,2984,2816,2904,2816,2816,2816,2816,2736,2736,2816,2816,2816,2736,2736,2816,2816,2816,2816,2816,2816,2736,2736,2736,2736,2736,2736,2736,2736,2736,2736,2736,2736,2736,2736,2736,2736,2736,2816,2736,2816,2816,2816,2816,2816,2904,2816,2816,2816,2736,2736,2656,2656
0,0,0,0,0,0,0,2816,2816,2904,2904,2904,2816,2816,2816,2904,2816,2816,2816,2736,2736,2816,2816,2816,2816,2816,2816,2904,2904,2816,2816,2816,2904,2816,2816,2816,2816,2904,2816,2816,2816,2816,2816,2816,2816,2816,2816,2816,2816,2816,2816,2816,2816,2816,2904,2816,2904,2904,2816,2816,2816,2816,2816,2904,2816,2816,2816,2816,2816,2816,2816,2816,2816,2816,2816,2816,2816,2816,2816,2816,2816,2816,2816,2816,2816,2816,2736,2736,2656,2656,2656,2656,2576,2816,2816,2816,2816,2816,2816,2816,2816,2816,2816,2816,2816,2816,2816,2816,2816,2816,2816,2736,2736,2816,2736,2736,2816,2816,2816,2816,2816,2816,2736,2736,2736,2656,2736,2736,2736,2736,2736,2736,2736,2816,448,392,392,448,448,512,512,568,632,752,752,816,872,936,1128,1200,1328,1400,1464,1536,1672,1744,1816,1888,1888,1888,1960,1960,1960,2032,2032,2032,2032,2032,2032,2032,2032,2032,2032,2032,2112,2184,2184,2112,2112,2112,2112,2112,2112,2112,2112,2112,2112,2112,2112,2112,2032,2032,2032,2032,2032,2032,2032,2032,1960,1960,1960,1960,1960,1960,1960,1960,1888,1888,1888,1888,1888,1888,1888,1888,1816,1816,1816,1816,1744,1744,1744,1744,1672,1672,1672,1600,1600,1600,1536,1536,1536,1536,1536,1464,1464,1464,1400,1400,1400,1400,1328,1328,1264,1264,1264,1264,1264,1264,1264,1264,1264,1264,1264,1264,1264,1264,1200,1264,1264,1264,1328,1328,1328,1328,1328,1328,1328,1328,1328,1328,1328,1400,1400,1400,1400,1400,1400,1400,1400,1400,1400,1464,1464,1536,1600,1600,1600,1600,1600,1600,1600,1672,1600,1672,1672,1672,1672,1672,1672,1672,1672,1672,1672,1672,1672,1744,1744,1816,1816,1888,1888,1888,1888,1888,1888,1888,1888,1888,1888,1816,1888,1888,1888,1960,1960,1960,1960,1960,1960,1960,1960,1960,2032,2032,2032,2032,2032,2112,2112,2112,2112,2112,2112,2112,2112,2112,2112,2112,2112,2112,2184,2184,2184,2264,2264,2264,2264,2264,2264,2264,2264,2184,2184,2264,2264,2264,2264,2264,2264,2264,2264,2264,2264,2264,2264,2184,2264,2184,2184,2264,2264,2264,2336,2336,2336,2336,2336,2336,2264,2264,2184,2184,2184,2184,2184,2184,2184,2184,2184,2184,2184,2264,2264,2264,2264,2264,2264,2264,2264,2264,2264,2336,2336,2336,2336,2336,2336,2336,2336,2336,2336,2336,2336,2336,2336,2264,2336,2264,2264,2264,2264,2264,2264,2264,2264,2264,2264,2264,2264,2264,2264,2264,2264,2264,2264,2264,2264,2184,2184,2264,2264,2264,2184,2264,2264,2264,2264,2184,2264,2184,2184,2184,2184,2184,2264,2264,2264,2264,2264,2264,2264,2264,2184,2184,2184,2264,2184,2184,2184,2112,2112,1960,1816,1816,1672,1536,1536,1400,1400,1328,1200,1064,1000,872,752,688,632,632,568,568,568,568,568,568,632,2736,2816,2904,2816,2816,2816,2904,2904,2904,2816,2816,2904,2904,2816,2904,2904,2816,2904,2904,2904,2816,2904,2904,2904,2904,2904,2904,2816,2904,2816,2816,2816,2816,2816,2816,2816,2816,2904,2904,2904,2904,2904,2904,2816,2904,2816,2816,2816,2816,2816,2904,2904,2904,2904,2904,2904,2904,2904,2904,2904,2904,2904,2904,2984,2984,2984,2984,2984,2816,2816,2816,2816,2736,2736,2736,2736,2736,2816,2816,2816,2816,2816,2816,2816,2816,2816,2816,2736,2736,2736,2736,2736,2736,2736,2736,2736,2736,2736,2736,2736,2816,2736,2736,2736,2816,2736,2816,2816,2816,2816,2816,2904,2816,2816,2736,2736,2736,2736,2656
0,0,0,0,0,0,0,2816,2816,2904,2904,2816,2816,2816,2816,2816,2816,2736,2816,2736,2736,2736,2736,2816,2816,2816,2816,2816,2816,2816,2816,2816,2816,2816,2816,2816,2816,2904,2816,2816,2816,2816,2816,2816,2816,2816,2736,2736,2736,2816,2816,2816,2816,2816,2904,2816,2904,2904,2816,2816,2816,2816,2816,2904,2816,2816,2816,2816,2816,2816,2816,2816,2816,2816,2816,2816,2816,2736,2736,2816,2816,2816,2736,2816,2816,2816,2816,2736,2656,2656,2736,2576,2576,2736,2736,2736,2736,2816,2816,2816,2816,2816,2816,2816,2816,2816,2816,2816,2816,2816,2736,2736,2736,2736,2736,2736,2736,2736,2816,2816,2816,2816,2736,2736,2736,2656,2736,2736,2736,2736,2736,2816,2736,2816,448,392,392,448,448,512,512,568,632,688,752,816,872,936,1128,1200,1328,1400,1464,1536,1672,1744,1816,1888,1888,1888,1960,1960,1960,2032,2032,2032,2032,2032,2032,2032,2112,2112,2032,2112,2112,2184,2184,2184,2112,2112,2112,2112,2112,2112,2112,2112,2112,2112,2112,2112,2032,2032,2032,2032,2032,2032,2032,1960,1960,1960,1960,1960,1960,1960,1960,1960,1960,1888,1888,1888,1888,1888,1888,1888,1816,1888,1816,1816,1744,1744,1744,1744,1672,1672,1672,1600,1600,1600,1600,1536,1536,1536,1536,1464,1464,1464,1400,1400,1400,1400,1328,1328,1328,1328,1328,1328,1264,1264,1264,1264,1264,1264,1264,1264,1264,1264,1264,1264,1264,1264,1264,1264,1264,1328,1264,1264,1328,1328,1328,1328,1328,1328,1400,1400,1400,1400,1400,1400,1400,1400,1400,1464,1464,1536,1536,1600,1600,1600,1600,1600,1600,1600,1600,1600,1600,1600,1672,1672,1672,1672,1672,1672,1672,1672,1672,1744,1744,1744,1816,1816,1816,1888,1888,1888,1888,1888,1888,1888,1888,1888,1888,1888,1888,1960,1960,1960,1960,2032,1960,1960,1960,2032,2032,2032,2032,2032,2032,2112,2112,2112,2112,2112,2112,2112,2112,2112,2112,2112,2112,2112,2184,2184,2184,2184,2184,2264,2184,2264,2264,2264,2264,2184,2184,2264,2264,2264,2264,2264,2264,2264,2264,2264,2264,2264,2264,2184,2184,2184,2184,2264,2264,2264,2264,2264,2264,2336,2264,2264,2264,2264,2264,2184,2184,2184,2184,2184,2184,2184,2184,2184,2184,2184,2264,2264,2264,2264,2264,2264,2264,2264,2264,2264,2336,2264,2264,2264,2264,2336,2336,2336,2336,2336,2336,2336,2264,2264,2264,2264,2264,2184,2264,2264,2264,2264,2184,2264,2184,2184,2184,2264,2264,2264,2264,2264,2264,2264,2264,2264,2184,2264,2264,2264,2184,2264,2264,2264,2336,2264,2264,2264,2264,2184,2264,2184,2264,2264,2264,2264,2264,2264,2264,2264,2264,2264,2264,2336,2264,2264,2184,2112,2032,1888,1816,1744,1672,1600,1536,1464,1400,1328,1200,1064,1000,872,752,752,688,632,568,568,568,568,512,568,568,2816,2816,2904,2816,2816,2816,2904,2904,2904,2816,2816,2904,2816,2816,2816,2816,2816,2816,2904,2816,2816,2816,2904,2904,2816,2904,2904,2904,2904,2904,2816,2816,2816,2816,2816,2816,2816,2904,2904,2904,2904,2816,2816,2816,2816,2816,2816,2816,2816,2816,2904,2904,2904,2816,2904,2904,2904,2904,2904,2904,2904,2904,2904,2984,2984,2984,2984,2904,2816,2816,2816,2736,2736,2736,2736,2736,2736,2816,2816,2816,2816,2816,2816,2816,2816,2816,2736,2736,2736,2736,2736,2736,2736,2736,2736,2736,2736,2736,2736,2736,2736,2736,2736,2736,2736,2736,2736,2736,2736,2816,2816,2904,2816,2816,2816,2736,2736,2736,2736
0,0,0,0,0,0,0,2816,2816,2816,2904,2816,2816,2816,2816,2816,2736,2736,2736,2736,2736,2736,2736,2816,2816,2816,2816,2816,2816,2816,2816,2816,2816,2816,2816,2816,2816,2904,2816,2816,2816,2816,2816,2816,2816,2816,2816,2816,2816,2816,2816,2816,2816,2816,2816,2816,2904,2816,2816,2816,2816,2816,2816,2816,2816,2736,2816,2816,2816,2816,2816,2816,2816,2816,2816,2816,2816,2736,2736,2816,2816,2816,2736,2736,2816,2816,2816,2736,2736,2736,2816,2816,2576,2736,2736,2736,2736,2816,2816,2816,2816,2816,2816,2816,2904,2816,2816,2816,2816,2816,2816,2736,2736,2736,2736,2736,2736,2736,2736,2816,2816,2816,2736,2736,2736,2656,2736,2736,2736,2736,2736,2816,2736,2816,448,392,392,448,448,512,512,568,632,688,752,872,936,1000,1128,1264,1328,1400,1464,1536,1600,1672,1816,1888,1888,1888,1960,1960,2032,2032,2032,2112,2112,2032,2032,2112,2112,2112,2112,2112,2112,2184,2184,2112,2112,2112,2112,2112,2112,2112,2032,2112,2112,2112,2112,2112,2032,2032,2032,2032,1960,1960,1960,1960,1960,1960,1960,1960,1960,1960,1960,1888,1888,1888,1888,1888,1888,1888,1888,1888,1816,1816,1816,1816,1744,1744,1744,1672,1672,1672,1672,1600,1600,1600,1600,1536,1536,1536,1536,1464,1464,1464,1400,1400,1400,1400,1328,1328,1328,1328,1328,1328,1328,1264,1264,1328,1264,1264,1264,1264,1264,1264,1264,1264,1264,1264,1264,1264,1328,1328,1264,1264,1328,1328,1328,1328,1328,1328,1400,1400,1400,1400,1400,1400,1400,1400,1400,1464,1464,1536,1536,1536,1600,1600,1600,1600,1600,1600,1600,1600,1600,1600,1600,1600,1600,1600,1672,1672,1672,1672,1672,1672,1744,1744,1816,1816,1816,1888,1888,1888,1888,1888,1888,1888,1888,1816,1888,1888,1888,1960,1960,1960,1960,1960,1960,1960,1960,1960,2032,2032,2032,2032,2032,2032,2112,2112,2112,2112,2112,2112,2112,2112,2112,2112,2112,2112,2184,2184,2184,2184,2184,2184,2184,2184,2184,2264,2184,2184,2184,2264,2264,2264,2264,2264,2264,2264,2264,2264,2264,2264,2264,2264,2264,2184,2184,2264,2184,2264,2264,2264,2264,2264,2264,2264,2264,2184,2184,2184,2184,2184,2184,2184,2184,2184,2184,2184,2184,2184,2184,2264,2264,2264,2264,2264,2264,2264,2264,2264,2264,2264,2264,2264,2264,2264,2336,2336,2336,2336,2336,2336,2264,2264,2264,2264,2264,2184,2264,2264,2264,2184,2184,2184,2184,2184,2184,2184,2184,2184,2184,2184,2184,2264,2264,2184,2184,2264,2184,2184,2184,2264,2264,2264,2264,2184,2264,2184,2184,2184,2184,2184,2184,2264,2264,2264,2264,2264,2264,2264,2264,2264,2264,2264,2184,2184,2184,2112,2032,1816,1816,1744,1672,1600,1536,1464,1400,1328,1200,1064,1000,872,752,752,688,632,632,568,568,568,568,568,632,2904,2904,2904,2816,2816,2816,2904,2904,2816,2816,2816,2904,2904,2816,2904,2904,2904,2904,2904,2816,2816,2816,2816,2816,2816,2816,2816,2816,2816,2816,2816,2816,2816,2816,2816,2904,2816,2904,2904,2904,2904,2816,2816,2816,2816,2816,2816,2816,2816,2816,2816,2904,2904,2816,2904,2904,2904,2904,2904,2904,2904,2904,2904,2984,2984,2984,2904,2904,2816,2816,2736,2736,2736,2736,2736,2736,2736,2736,2816,2816,2816,2816,2816,2736,2736,2736,2736,2736,2736,2736,2736,2736,2736,2736,2736,2736,2736,2736,2736,2816,2736,2736,2736,2736,2736,2736,2736,2736,2736,2816,2816,2904,2816,2816,2816,2736,2736,2736,2736
0,0,0,0,0,0,0,2736,2816,2816,2816,2816,2816,2736,2816,2816,2816,2736,2816,2736,2736,2736,2816,2816,2816,2816,2736,2816,2816,2816,2816,2816,2816,2816,2816,2816,2904,2904,2904,2904,2816,2816,2904,2904,2904,2816,2816,2736,2736,2736,2816,2736,2816,2816,2816,2816,2904,2816,2816,2816,2736,2816,2816,2816,2816,2736,2736,2736,2816,2816,2816,2816,2816,2816,2816,2816,2816,2736,2736,2816,2816,2736,2736,2736,2736,2736,2736,2656,2656,2656,2736,2816,2576,2736,2736,2736,2736,2816,2816,2816,2816,2816,2816,2816,2904,2816,2816,2816,2816,2816,2816,2736,2736,2816,2736,2736,2736,2736,2736,2736,2736,2736,2736,2736,2736,2736,2736,2736,2736,2736,2816,2816,2736,392,448,392,392,448,448,512,512,568,632,688,752,872,936,1000,1128,1200,1264,1400,1464,1536,1600,1672,1816,1888,1888,1888,1960,1960,2032,2032,2112,2112,2112,2112,2112,2112,2112,2112,2112,2112,2112,2112,2112,2112,2112,2112,2112,2112,2112,2112,2112,2112,2112,2112,2112,2112,2032,2032,2032,2032,1960,1960,1960,1960,1960,1960,1960,1960,1960,1888,1888,1888,1888,1888,1888,1888,1888,1888,1816,1816,1816,1816,1816,1816,1744,1744,1744,1672,1672,1672,1672,1672,1600,1600,1600,1600,1536,1536,1464,1464,1464,1464,1400,1400,1400,1400,1400,1328,1328,1328,1328,1264,1328,1264,1264,1264,1264,1264,1264,1264,1264,1264,1264,1264,1264,1264,1264,1264,1264,1264,1264,1264,1328,1328,1328,1328,1328,1328,1400,1400,1400,1400,1400,1400,1400,1400,1400,1400,1464,1464,1536,1536,1536,1600,1600,1600,1600,1600,1600,1600,1600,1600,1600,1600,1600,1600,1672,1672,1672,1672,1672,1672,1672,1744,1816,1816,1816,1816,1888,1888,1888,1888,1888,1888,1888,1816,1888,1888,1888,1960,1888,1960,1960,1960,1960,1888,1888,1888,1960,1960,2032,1960,2032,2032,2032,2032,2032,2032,2032,2112,2112,2112,2112,2112,2112,2112,2184,2184,2184,2184,2184,2184,2184,2184,2184,2264,2184,2184,2184,2264,2264,2264,2264,2264,2264,2264,2264,2264,2264,2184,2264,2184,2184,2184,2184,2264,2264,2264,2264,2264,2264,2264,2264,2264,2184,2184,2184,2184,2184,2184,2184,2184,2184,2184,2184,2184,2184,2184,2184,2264,2264,2264,2264,2264,2264,2264,2264,2264,2264,2264,2264,2264,2264,2264,2336,2336,2336,2336,2336,2336,2264,2264,2264,2184,2184,2184,2184,2184,2184,2184,2184,2184,2184,2184,2184,2184,2184,2184,2184,2184,2184,2264,2264,2264,2264,2264,2184,2184,2184,2184,2264,2264,2264,2184,2264,2184,2184,2184,2184,2184,2184,2184,2264,2184,2184,2184,2184,2184,2184,2184,2184,2264,2184,2184,2112,2032,1960,1816,1816,1744,1672,1600,1600,1464,1400,1328,1264,1128,1000,872,816,752,688,688,632,632,568,568,568,568,632,2904,2904,2904,2816,2816,2816,2816,2816,2816,2816,2816,2904,2904,2904,2904,2904,2904,2904,2904,2904,2816,2816,2816,2816,2816,2816,2816,2816,2816,2816,2816,2816,2816,2816,2816,2904,2904,2904,2816,2904,2904,2816,2816,2816,2816,2816,2816,2816,2816,2816,2816,2816,2816,2816,2904,2904,2904,2904,2904,2904,2904,2904,2904,2904,2904,2904,2904,2904,2736,2736,2736,2736,2736,2736,2736,2736,2736,2816,2816,2816,2816,2816,2816,2736,2816,2736,2736,2736,2736,2736,2736,2736,2736,2736,2736,2736,2736,2736,2736,2816,2736,2736,2736,2656,2656,2656,2656,2656,2736,2736,2816,2816,2816,2816,2816,2736,2816,2736,2736
0,0,0,0,0,0,0,2736,2816,2816,2816,2816,2816,2736,2736,2816,2736,2736,2736,2736,2736,2816,2816,2816,2816,2816,2736,2816,2816,2816,2736,2736,2816,2816,2816,2816,2904,2904,2904,2904,2904,2816,2904,2904,2904,2816,2816,2816,2736,2816,2816,2736,2736,2736,2816,2816,2816,2736,2736,2736,2736,2736,2736,2736,2736,2656,2736,2736,2816,2816,2736,2736,2816,2736,2736,2816,2816,2736,2816,2816,2816,2736,2736,2736,2736,2736,2736,2656,2656,2656,2656,2736,2576,2736,2736,2736,2736,2816,2816,2816,2816,2816,2816,2816,2816,2816,2736,2816,2816,2816,2816,2736,2736,2736,2736,2736,2656,2736,2736,2736,2736,2736,2736,2736,2736,2736,2736,2736,2736,2736,2816,2816,2736,2816,448,448,392,448,448,512,512,568,632,688,752,872,936,1000,1128,1200,1264,1328,1464,1536,1600,1672,1816,1888,1888,1888,1960,1960,2032,2032,2032,2112,2032,2112,2112,2112,2112,2112,2112,2112,2112,2112,2112,2032,2032,2032,2032,2032,2032,2112,2112,2112,2112,2112,2112,2112,2112,2032,2032,2032,1960,1960,1960,1960,1960,1960,1960,1960,1888,1888,1888,1888,1888,1888,1888,1888,1888,1888,1816,1816,1816,1816,1816,1816,1816,1744,1744,1672,1672,1672,1672,1672,1600,1600,1600,1600,1536,1536,1464,1464,1464,1464,1400,1400,1400,1400,1400,1328,1328,1328,1328,1328,1328,1328,1264,1264,1264,1264,1264,1264,1200,1264,1264,1264,1200,1264,1264,1264,1264,1264,1264,1264,1328,1328,1328,1328,1328,1328,1328,1400,1400,1400,1400,1400,1400,1400,1400,1400,1464,1464,1536,1536,1536,1600,1600,1600,1600,1600,1600,1600,1600,1600,1600,1600,1600,1600,1672,1672,1672,1672,1672,1672,1672,1672,1744,1744,1744,1744,1816,1816,1816,1816,1816,1888,1888,1816,1816,1888,1888,1888,1888,1888,1960,1960,1960,1888,1888,1888,1960,1960,1960,1960,2032,2032,2032,2032,2032,2032,2032,2032,2032,2112,2112,2112,2112,2112,2112,2184,2184,2184,2184,2184,2184,2184,2184,2184,2184,2184,2184,2184,2264,2184,2184,2184,2184,2264,2264,2264,2264,2184,2264,2264,2184,2184,2264,2264,2264,2264,2264,2264,2264,2264,2264,2184,2184,2184,2184,2184,2184,2184,2184,2184,2184,2184,2184,2184,2184,2184,2184,2264,2264,2336,2336,2336,2336,2336,2336,2264,2264,2264,2264,2264,2264,2264,2264,2336,2264,2336,2336,2336,2264,2264,2264,2184,2184,2184,2184,2184,2184,2184,2184,2184,2184,2184,2184,2184,2184,2184,2184,2184,2184,2264,2264,2264,2264,2264,2184,2184,2184,2184,2184,2264,2184,2184,2184,2184,2184,2184,2184,2184,2184,2184,2184,2184,2184,2184,2184,2184,2184,2184,2184,2184,2184,2184,2112,2112,2032,1816,1744,1744,1672,1600,1536,1464,1400,1264,1200,1064,1064,936,816,752,688,688,632,632,568,568,568,568,568,2904,2904,2904,2816,2816,2816,2816,2816,2816,2816,2816,2816,2904,2904,2904,2904,2904,2904,2904,2904,2816,2816,2816,2904,2816,2816,2816,2816,2816,2904,2904,2816,2904,2904,2904,2904,2904,2904,2816,2904,2904,2816,2816,2816,2904,2904,2904,2816,2816,2816,2816,2816,2816,2816,2904,2904,2904,2904,2904,2904,2984,2904,2904,2904,2904,2904,2904,2904,2736,2736,2736,2736,2736,2736,2736,2736,2736,2816,2816,2816,2816,2816,2816,2736,2736,2736,2736,2736,2736,2736,2736,2656,2736,2736,2736,2736,2736,2736,2736,2816,2736,2736,2736,2736,2656,2656,2656,2736,2736,2736,2816,2816,2816,2816,2816,2736,2816,2816,2736
0,0,0,0,0,0,0,2736,2816,2816,2816,2816,2816,2736,2736,2816,2736,2736,2816,2736,2816,2736,2816,2816,2816,2816,2816,2816,2816,2816,2816,2816,2816,2816,2816,2816,2904,2904,2816,2904,2904,2816,2904,2904,2904,2816,2816,2816,2736,2736,2816,2736,2736,2816,2816,2816,2816,2816,2736,2736,2736,2736,2736,2736,2656,2656,2736,2736,2736,2736,2736,2736,2816,2736,2736,2816,2736,2816,2736,2816,2736,2736,2736,2736,2736,2736,2736,2656,2656,2656,2736,2816,2656,2736,2736,2736,2816,2816,2816,2816,0,0,2576,2736,2736,2736,2736,2736,2736,2816,2736,2736,2736,2736,2736,2656,2656,2656,2736,2736,2736,2736,2736,2736,2736,2736,2736,2736,2736,2736,2816,2816,2816,2816,392,392,392,448,448,512,512,568,632,688,816,872,936,1000,1128,1200,1264,1328,1400,1536,1600,1672,1816,1888,1888,1960,1960,2032,2032,2032,2112,2112,2112,2112,2032,2032,2112,2032,2112,2032,2112,2112,2112,2032,2032,2032,2032,2032,2032,2032,2032,2032,2112,2112,2112,2112,2112,2032,2112,2032,2032,1960,1960,1960,1960,1960,1960,1960,1888,1888,1888,1888,1888,1888,1888,1888,1888,1888,1816,1816,1816,1816,1816,1816,1816,1744,1744,1672,1672,1672,1672,1672,1600,1600,1600,1600,1536,1536,1464,1464,1464,1400,1400,1400,1400,1400,1400,1328,1328,1328,1328,1328,1328,1328,1264,1328,1328,1264,1264,1264,1200,1264,1264,1200,1200,1200,1264,1264,1264,1264,1264,1264,1328,1328,1328,1328,1328,1328,1328,1400,1400,1400,1400,1400,1400,1400,1400,1400,1464,1464,1536,1464,1536,1536,1600,1600,1600,1600,1600,1600,1600,1600,1600,1600,1600,1600,1600,1672,1672,1672,1672,1672,1672,1672,1744,1744,1744,1744,1816,1816,1816,1816,1888,1888,1888,1816,1816,1888,1888,1888,1888,1888,1888,1888,1888,1888,1888,1888,1888,1960,1960,1960,2032,2032,2032,2032,2032,2032,2032,2032,2032,2112,2112,2112,2112,2112,2112,2184,2184,2184,2184,2184,2184,2184,2184,2184,2184,2184,2184,2184,2184,2184,2184,2184,2184,2264,2264,2264,2264,2184,2264,2264,2184,2184,2184,2264,2184,2264,2184,2184,2264,2264,2184,2184,2184,2184,2184,2184,2184,2184,2184,2184,2184,2184,2184,2184,2184,2184,2184,2264,2336,2336,2336,2336,2336,2336,2336,2264,2264,2264,2264,2264,2264,2264,2264,2264,2264,2336,2336,2264,2264,2264,2264,2264,2184,2184,2184,2184,2184,2184,2184,2184,2184,2112,2112,2184,2184,2184,2184,2184,2184,2184,2264,2264,2264,2264,2184,2184,2184,2184,2184,2264,2264,2184,2264,2184,2184,2184,2184,2184,2184,2184,2184,2184,2184,2184,2184,2184,2184,2184,2184,2184,2184,2184,2184,2112,2032,1816,1672,1672,1600,1600,1536,1464,1400,1264,1200,1064,1000,936,816,752,752,688,632,632,568,568,568,568,568,2904,2904,2904,2816,2816,2816,2816,2816,2816,2816,2816,2816,2816,2816,2904,2904,2904,2904,2904,2904,2904,2816,2816,2816,2816,2816,2816,2816,2816,2904,2904,2816,2904,2904,2904,2904,2904,2904,2904,2904,2904,2904,2904,2904,2816,2816,2816,2816,2816,2816,2816,2816,2816,2816,2816,2816,2904,2904,2904,2904,2904,2904,2904,2904,2904,2904,2904,2904,2736,2736,2736,2736,2736,2736,2736,2736,2736,2736,2736,2736,2736,2736,2736,2736,2736,2736,2736,2736,2736,2736,2736,2656,2736,2736,2736,2736,2736,2736,2736,2736,2736,2736,2736,2736,2656,2656,2656,2736,2736,2736,2816,2816,2816,2816,2816,2736,2816,2816,2736
0,0,0,0,0,0,0,2736,2736,2816,2816,2816,2816,2736,2736,2736,2736,2736,2816,2736,2736,2736,2816,2816,2816,2816,2736,2816,2816,2816,2816,2816,2816,2904,2816,2904,2904,2904,2904,2904,2904,2904,2904,2904,2904,2816,2816,2816,2736,2816,2816,2736,2736,2816,2816,2816,2816,2816,2816,2816,2736,2736,2816,2736,2736,2656,2736,2736,2816,2816,2736,2736,2816,2736,2816,2816,2816,2816,2816,2816,2736,2736,2656,2656,2736,2736,2736,2656,2656,2736,2816,2816,2816,2816,2816,2736,2816,2816,2816,2656,2576,2576,2576,0,2736,2736,2736,2736,2736,2736,2736,2656,2656,2736,2656,2656,2656,2656,2736,2736,2736,2736,2736,2736,2736,2736,2736,2736,2736,2736,2816,2816,2816,2816,392,392,392,448,448,512,568,568,632,688,752,872,936,1000,1128,1200,1264,1328,1400,1464,1600,1672,1816,1888,1888,1960,1960,2032,2032,2032,2032,2032,2032,2032,2032,2112,2112,2112,2112,2112,2112,2112,2112,2032,2032,2032,2032,2032,2032,2112,2032,2112,2112,2112,2112,2112,2112,2032,2112,2032,2032,2032,1960,1960,1960,1960,1960,1960,1960,1888,1888,1888,1888,1888,1888,1888,1888,1888,1888,1816,1816,1816,1744,1816,1816,1744,1744,1672,1672,1672,1672,1672,1672,1600,1600,1600,1600,1536,1464,1464,1464,1464,1400,1400,1400,1400,1400,1400,1328,1328,1328,1328,1328,1328,1264,1328,1264,1264,1264,1264,1200,1264,1264,1200,1200,1200,1200,1264,1264,1264,1264,1264,1328,1328,1328,1328,1328,1328,1328,1328,1400,1400,1400,1400,1400,1400,1400,1400,1464,1464,1464,1464,1536,1536,1600,1600,1600,1600,1600,1600,1600,1600,1600,1600,1600,1600,1600,1672,1672,1672,1672,1672,1672,1672,1744,1744,1672,1744,1744,1744,1816,1816,1816,1888,1888,1816,1816,1816,1888,1888,1888,1888,1888,1888,1888,1888,1888,1888,1888,1888,1960,1960,1960,2032,2032,2032,2032,2032,2032,2032,2032,2032,2112,2112,2112,2112,2112,2112,2184,2184,2184,2184,2184,2184,2184,2184,2184,2184,2184,2184,2184,2184,2184,2184,2184,2184,2184,2184,2264,2184,2264,2264,2184,2184,2264,2264,2184,2184,2184,2184,2184,2184,2184,2184,2184,2184,2184,2184,2184,2184,2184,2184,2184,2184,2184,2184,2184,2184,2184,2264,2264,2336,2336,2336,2336,2336,2336,2336,2264,2264,2264,2264,2184,2264,2264,2264,2264,2336,2336,2264,2264,2264,2264,2184,2184,2184,2184,2184,2184,2184,2184,2184,2184,2112,2112,2184,2184,2184,2184,2184,2184,2264,2264,2184,2184,2184,2184,2184,2184,2184,2184,2184,2184,2184,2184,2184,2184,2184,2184,2184,2184,2184,2184,2184,2184,2184,2184,2184,2184,2184,2184,2184,2184,2184,2184,2112,2032,1816,1672,1600,1600,1600,1536,1464,1328,1264,1128,1064,1000,872,816,752,688,688,632,568,568,568,512,568,568,2816,2816,2816,2816,2816,2816,2816,2816,2816,2816,2816,2816,2904,2904,2904,2904,2904,2904,2904,2904,2904,2816,2816,2904,2816,2816,2816,2904,2904,2904,2904,2904,2904,2904,2904,2904,2904,2904,2904,2904,2904,2816,2816,2816,2816,2904,2904,2816,2816,2816,2816,2816,2816,2816,2816,2816,2816,2904,2904,2904,2904,2816,2816,2904,2904,2904,2904,2816,2736,2736,2736,2736,2736,2736,2736,2736,2736,2736,2736,2736,2736,2736,2736,2736,2736,2736,2736,2736,2736,2736,2656,2736,2736,2736,2736,2736,2736,2816,2816,2816,2736,2736,2736,2736,2656,2656,2656,2736,2736,2736,2736,2816,2816,2816,2816,2736,2736,2816,2736
0,0,0,0,0,0,0,2736,2816,2816,2816,2816,2816,2736,2816,2816,2736,2736,2816,2736,2736,2736,2816,2816,2816,2816,2816,2816,2816,2904,2816,2816,2816,2904,2816,2904,2904,2904,2904,2904,2904,2904,2904,2904,2816,2816,2736,2736,2736,2736,2816,2736,2736,2816,2816,2816,2816,2816,2816,2816,2816,2816,2816,2736,2736,2736,2736,2736,2816,2816,2736,2736,2816,2736,2736,2816,2736,2816,2816,2816,2736,2736,2656,2656,2656,2656,2656,2656,2736,2736,2816,2816,2816,2816,2736,2736,2816,2736,2656,2656,2576,2576,2576,2736,2736,2736,2736,2736,2736,2736,2736,2736,2656,2736,2736,2656,2656,2656,2736,2736,2736,2736,2736,2736,2736,2736,2736,2736,2736,2736,2816,2816,2736,2816,392,392,392,448,448,512,568,568,632,688,816,872,1000,1000,1128,1200,1264,1328,1400,1464,1600,1672,1816,1888,1888,1960,1960,1960,2032,2032,2032,2032,2032,2032,2032,2032,2112,2112,2112,2112,2112,2112,2112,2112,2032,2032,2032,2032,2032,2112,2032,2112,2112,2112,2032,2112,2032,2032,2112,2032,2032,2032,1960,1960,1960,1960,1960,1960,1960,1888,1888,1888,1888,1888,1888,1888,1888,1888,1888,1816,1816,1816,1744,1744,1744,1744,1744,1672,1672,1672,1672,1672,1672,1600,1600,1600,1536,1536,1464,1464,1464,1400,1400,1400,1400,1400,1400,1400,1328,1328,1328,1328,1328,1328,1264,1328,1264,1264,1264,1264,1264,1264,1264,1264,1200,1200,1200,1200,1264,1264,1264,1264,1328,1328,1328,1328,1328,1328,1328,1328,1328,1400,1400,1400,1400,1400,1400,1464,1464,1464,1536,1464,1536,1536,1600,1600,1600,1600,1600,1600,1600,1600,1600,1600,1600,1600,1600,1600,1672,1672,1672,1672,1672,1672,1744,1672,1672,1744,1744,1744,1744,1816,1816,1888,1888,1816,1816,1816,1888,1888,1888,1888,1888,1888,1888,1888,1888,1888,1888,1888,1888,1888,1960,1960,1960,2032,2032,2032,2032,2032,2032,2032,2112,2112,2112,2112,2112,2112,2184,2184,2184,2184,2184,2184,2184,2184,2184,2184,2184,2184,2184,2184,2184,2184,2184,2184,2184,2184,2264,2264,2264,2264,2264,2184,2264,2184,2184,2184,2184,2184,2184,2184,2184,2184,2184,2184,2184,2184,2184,2184,2184,2184,2184,2184,2184,2184,2184,2184,2184,2264,2264,2336,2336,2336,2336,2336,2336,2264,2264,2264,2184,2264,2184,2264,2264,2336,2336,2336,2336,2264,2264,2264,2184,2184,2184,2184,2184,2184,2184,2184,2184,2112,2112,2112,2112,2184,2184,2184,2184,2264,2184,2264,2264,2184,2184,2184,2184,2184,2184,2184,2184,2184,2184,2184,2264,2184,2184,2184,2184,2184,2184,2184,2184,2184,2184,2184,2184,2184,2184,2184,2184,2184,2184,2184,2112,2112,2032,1816,1672,1600,1600,1600,1536,1464,1328,1264,1128,1064,1000,872,816,752,688,688,632,568,568,568,512,512,2736,2736,2816,2816,2816,2816,2816,2816,2816,2816,2816,2816,2904,2904,2904,2904,2904,2904,2904,2904,2904,2904,2816,2816,2816,2816,2816,2816,2816,2816,2904,2904,2904,2904,2904,2904,2904,2904,2904,2904,2904,2904,2904,2816,2904,2904,2904,2816,2816,2816,2816,2816,2816,2816,2816,2816,2816,2904,2904,2904,2904,2904,2904,2904,2904,2904,2904,2816,2816,2736,2736,2736,2736,2736,2736,2736,2736,2736,2736,2736,2736,2736,2736,2736,2736,2736,2736,2736,2736,2736,2736,2736,2736,2736,2736,2736,2736,2736,2736,2816,2816,2736,2736,2736,2736,2656,2656,2736,2736,2736,2736,2736,2816,2816,2816,2816,2736,2816,2816,2736
0,0,0,0,0,0,0,2736,2736,2736,2736,2736,2736,2736,2736,2736,2736,2656,2736,2736,2736,2736,2816,2816,2816,2816,2816,2816,2816,2904,2816,2904,2816,2904,2816,2904,2904,2904,2904,2904,2904,2904,2904,2904,2816,2816,2736,2736,2736,2736,2736,2736,2736,2816,2816,2816,2816,2816,2816,2816,2736,2816,2816,2816,2736,2736,2736,2736,2816,2816,2736,2736,2736,2736,2736,2736,2736,2736,2736,2736,2736,2656,2656,2656,2656,2656,2656,2736,2736,2816,2816,2816,2816,2816,2816,2736,2816,2736,2656,2576,2576,2656,2736,2736,2736,2736,2816,2816,2736,2816,2816,2816,2736,2736,2736,2736,2736,2736,2736,2736,2736,2736,2736,2736,2736,2736,2736,2736,2736,2736,2736,2736,2656,2736,392,392,392,448,448,512,568,568,632,688,752,872,936,1000,1128,1200,1264,1328,1400,1464,1600,1672,1816,1888,1888,1960,1960,1960,2032,2032,2032,2032,2032,2032,2032,2032,2112,2112,2112,2112,2112,2112,2112,2112,2032,2112,2112,2112,2112,2112,2112,2112,2112,2112,2112,2112,2112,2032,2112,2032,2032,2032,1960,1960,1960,1960,1960,1960,1960,1888,1888,1888,1888,1888,1888,1888,1888,1888,1888,1816,1816,1816,1816,1816,1744,1744,1744,1672,1672,1672,1672,1672,1600,1600,1600,1600,1600,1536,1464,1464,1464,1400,1400,1400,1400,1400,1400,1400,1328,1328,1328,1328,1328,1328,1328,1328,1328,1264,1264,1264,1264,1264,1264,1264,1200,1200,1200,1200,1264,1264,1264,1328,1328,1328,1328,1328,1328,1328,1328,1328,1328,1328,1328,1400,1400,1400,1400,1400,1464,1464,1464,1536,1536,1536,1600,1600,1600,1600,1600,1600,1600,1600,1600,1600,1600,1600,1600,1600,1672,1672,1672,1672,1672,1672,1672,1672,1672,1672,1744,1744,1744,1816,1816,1816,1888,1816,1816,1816,1816,1816,1816,1816,1816,1816,1888,1888,1888,1888,1888,1888,1888,1888,1960,1960,1960,1960,2032,2032,2032,2032,2032,2032,2032,2112,2112,2112,2112,2112,2112,2112,2184,2184,2112,2184,2184,2184,2184,2184,2184,2184,2184,2184,2184,2184,2184,2184,2184,2184,2264,2264,2264,2264,2184,2184,2184,2184,2184,2184,2184,2184,2184,2184,2184,2184,2184,2184,2184,2184,2184,2184,2184,2184,2184,2184,2184,2184,2184,2184,2184,2264,2264,2264,2264,2336,2336,2336,2336,2264,2264,2184,2184,2184,2184,2264,2264,2264,2264,2264,2264,2264,2264,2264,2184,2184,2184,2184,2184,2184,2184,2184,2184,2112,2112,2112,2112,2184,2184,2184,2184,2264,2184,2264,2264,2264,2264,2184,2184,2184,2184,2184,2184,2184,2184,2184,2264,2184,2184,2184,2184,2184,2264,2184,2264,2184,2184,2184,2184,2184,2184,2184,2184,2184,2184,2184,2112,2112,2032,1816,1744,1672,1600,1600,1464,1464,1328,1200,1128,1064,1000,872,816,752,688,632,632,568,568,568,512,568,2656,2656,2816,2816,2816,2816,2816,2816,2816,2816,2816,2816,2816,2904,2904,2904,2904,2904,2904,2904,2904,2904,2904,2904,2904,2816,2904,2904,2904,2904,2904,2904,2816,2816,2904,2904,2904,2904,2904,2904,2904,2904,2904,2816,2904,2904,2904,2816,2816,2816,2816,2816,2816,2816,2816,2816,2816,2816,2816,2904,2816,2904,2904,2904,2904,2904,2904,2816,2816,2736,2736,2736,2736,2736,2736,2736,2736,2736,2736,2736,2736,2736,2736,2736,2736,2736,2736,2736,2736,2736,2736,2736,2736,2736,2736,2736,2736,2736,2736,2736,2736,2736,2736,2736,2736,2656,2656,2736,2736,2736,2736,2736,2816,2816,2816,2816,2736,2736,2736,2736
